4635.46 1418.84 2440.0 0.000000 -3.350097 -9.422147
4653.46 1479.84 2424.0 0.000000 0.000000 -10.000000
4655.46 1495.84 2424.0 0.000000 0.000000 -10.000000
4654.46 1655.84 2408.0 0.000000 -4.472136 8.944272
4643.46 1599.84 2360.0 0.000000 -6.343166 7.730734
4634.46 1583.84 2360.0 0.000000 0.000000 10.000000
4659.46 1745.84 2648.0 0.000000 0.000000 10.000000
4638.46 1681.84 2632.0 0.000000 -4.472136 8.944272
4661.46 1614.84 2536.0 0.000000 -3.880570 -9.216354
4661.46 1662.84 2536.0 0.000000 0.000000 -10.000000
4660.46 1619.84 2680.0 0.000000 6.853647 -7.282000
4638.46 1598.84 2728.0 0.000000 0.000000 10.000000
4644.46 1539.84 2680.0 0.000000 -3.162278 9.486833
4655.46 1569.84 2648.0 0.000000 0.000000 -10.000000
4656.46 1793.84 2664.0 0.000000 0.000000 -10.000000
4658.46 1838.84 2728.0 0.000000 8.715755 -4.902612
4655.46 1873.84 2744.0 0.000000 9.922779 1.240347
4660.46 1943.84 2904.0 0.000000 3.222638 9.466499
4660.46 1909.84 3000.0 0.000000 9.161573 -4.008188
4633.46 1952.84 3048.0 0.000000 6.060432 -7.954317
4636.46 2000.84 3048.0 0.000000 0.000000 -10.000000
4658.46 2016.84 3048.0 0.000000 0.000000 -10.000000
4658.46 1935.84 3064.0 0.000000 0.000000 10.000000
4652.46 1919.84 3064.0 0.000000 -7.295372 6.839411
4655.46 1784.84 2936.0 0.000000 0.000000 10.000000
4635.46 1736.84 2920.0 0.000000 -4.472136 8.944272
4649.46 1672.84 2920.0 0.000000 0.000000 10.000000
4656.46 1624.84 2920.0 0.000000 0.000000 10.000000
4648.46 1607.84 2904.0 0.000000 -7.295372 -6.839411
4648.46 1639.84 2904.0 0.000000 0.000000 -10.000000
4633.46 1671.84 2904.0 0.000000 0.000000 -10.000000
4649.46 1703.84 2904.0 0.000000 0.000000 -10.000000
4642.46 1719.84 2904.0 0.000000 -6.060432 -7.954317
4661.46 1761.84 2760.0 0.000000 -10.000000 0.000000
4658.46 1745.84 2760.0 0.000000 -9.264666 -3.763770
4631.46 1779.84 2680.0 0.000000 -9.989032 -0.468236
4658.46 2691.84 2680.0 0.000000 0.000000 -10.000000
4636.46 2739.84 2680.0 0.000000 0.000000 -10.000000
4659.46 2755.84 2680.0 0.000000 0.000000 -10.000000
4650.46 2771.84 2680.0 0.000000 0.000000 -10.000000
4657.46 2787.84 2680.0 0.000000 0.000000 -10.000000
4635.46 2803.84 2680.0 0.000000 0.000000 -10.000000
4659.46 2835.84 2680.0 0.000000 0.000000 -10.000000
4647.46 2787.84 2696.0 0.000000 3.969112 9.178570
4631.46 2840.84 2776.0 0.000000 0.000000 -10.000000
4626.46 2929.84 2744.0 0.000000 -3.350097 -9.422147
4661.46 3086.84 2728.0 0.000000 0.000000 -10.000000
4655.46 3134.84 2728.0 0.000000 0.000000 -10.000000
4655.46 3182.84 2728.0 0.000000 0.000000 -10.000000
4662.46 3214.84 2728.0 0.000000 0.000000 -10.000000
4656.46 3176.84 2776.0 0.000000 0.000000 10.000000
4659.46 2935.84 2904.0 0.000000 0.000000 10.000000
4657.46 2800.84 2952.0 0.000000 9.586469 2.845983
4655.46 2837.84 3000.0 0.000000 0.000000 -10.000000
4657.46 2943.84 3064.0 0.000000 0.000000 -10.000000
4652.46 2975.84 3064.0 0.000000 0.000000 -10.000000
4632.46 3007.84 3064.0 0.000000 0.000000 -10.000000
4631.46 3008.84 2968.0 0.000000 -4.472136 -8.944272
4661.46 3072.84 2952.0 0.000000 8.869141 -4.619344
4635.46 3088.84 2952.0 0.000000 0.000000 -10.000000
4657.46 3104.84 2952.0 0.000000 0.000000 -10.000000
4657.46 3136.84 3048.0 0.000000 9.426272 3.338471
4655.46 3195.84 3192.0 0.000000 3.350097 -9.422147
4657.46 3227.84 3192.0 0.000000 3.350097 -9.422147
4660.46 3278.84 3224.0 0.000000 6.747692 -7.380288
4650.46 3251.84 3240.0 0.000000 0.000000 10.000000
4662.46 3219.84 3240.0 0.000000 0.000000 10.000000
4658.46 3187.84 3240.0 0.000000 0.000000 10.000000
4648.46 3171.84 3240.0 0.000000 0.000000 10.000000
4638.46 3155.84 3240.0 0.000000 0.000000 10.000000
4662.46 3118.84 3224.0 0.000000 0.000000 10.000000
4661.46 3086.84 3224.0 0.000000 0.000000 10.000000
4658.46 3022.84 3224.0 0.000000 0.000000 10.000000
4647.46 2919.84 3144.0 0.000000 0.000000 10.000000
4632.46 2849.84 3128.0 0.000000 0.000000 -10.000000
4661.46 2751.84 3064.0 0.000000 0.000000 10.000000
4657.46 2719.84 3064.0 0.000000 0.000000 10.000000
4643.46 2520.84 2920.0 0.000000 0.000000 10.000000
4657.46 2488.84 2920.0 0.000000 0.000000 10.000000
4656.46 2487.84 2904.0 0.000000 0.000000 -10.000000
4641.46 2599.84 2904.0 0.000000 0.000000 -10.000000
4655.46 2686.84 2728.0 0.000000 0.000000 10.000000
4655.46 2654.84 2728.0 0.000000 0.000000 10.000000
4631.46 2606.84 2728.0 0.000000 0.000000 10.000000
4633.46 2017.84 2760.0 0.000000 -8.120154 5.836360
4651.46 2033.84 2744.0 0.000000 0.000000 -10.000000
4657.46 2065.84 2744.0 0.000000 0.000000 -10.000000
4658.46 2081.84 2760.0 0.000000 4.472136 -8.944272
4658.46 2088.84 2776.0 0.000000 0.000000 10.000000
4633.46 2072.84 2776.0 0.000000 0.000000 10.000000
4661.46 2475.84 3192.0 0.000000 0.000000 -10.000000
4658.46 2539.84 3192.0 0.000000 0.000000 -10.000000
4635.46 2555.84 3192.0 0.000000 0.000000 -10.000000
4659.46 2590.84 3224.0 0.000000 6.747692 -7.380288
4635.46 2606.84 3224.0 0.000000 6.747692 -7.380288
4659.46 2622.84 3224.0 0.000000 0.000000 -10.000000
4636.46 2638.84 3224.0 0.000000 0.000000 -10.000000
4650.46 2675.84 3240.0 0.000000 0.000000 10.000000
4632.46 2595.84 3240.0 0.000000 0.000000 10.000000
4660.46 2459.84 3208.0 0.000000 0.000000 10.000000
4662.46 2427.84 3208.0 0.000000 3.350097 9.422147
4657.46 2382.84 3224.0 0.000000 0.000000 10.000000
4651.46 2334.84 3224.0 0.000000 0.000000 10.000000
4661.46 2286.84 3224.0 0.000000 0.000000 10.000000
4656.46 2238.84 3224.0 0.000000 0.000000 10.000000
4649.46 2222.84 3224.0 0.000000 0.000000 10.000000
4657.46 2206.84 3224.0 0.000000 0.000000 10.000000
4633.46 2151.84 3144.0 0.000000 0.000000 10.000000
4637.46 2117.84 3080.0 0.000000 -8.637789 5.038710
4662.46 2111.84 3064.0 0.000000 -8.479983 -5.299989
4636.46 2127.84 3064.0 0.000000 0.000000 -10.000000
4631.46 2159.84 3064.0 0.000000 0.000000 -10.000000
4662.46 2304.84 2952.0 0.000000 0.000000 -10.000000
4637.46 2320.84 2952.0 0.000000 0.000000 -10.000000
4657.46 4374.84 3016.0 0.000000 0.000000 -10.000000
4659.46 4390.84 3016.0 0.000000 0.000000 -10.000000
4634.46 4371.84 3240.0 0.000000 0.000000 10.000000
4662.46 4323.84 3240.0 0.000000 0.000000 10.000000
4651.46 4307.84 3240.0 0.000000 0.000000 10.000000
4656.46 4291.84 3240.0 0.000000 0.000000 10.000000
4662.46 4195.84 3240.0 0.000000 0.000000 10.000000
4660.46 4067.84 3240.0 0.000000 0.000000 10.000000
4662.46 4051.84 3240.0 0.000000 0.000000 10.000000
4660.46 4103.84 3160.0 0.000000 -4.472136 -8.944272
4657.46 4358.84 3016.0 0.000000 0.000000 -10.000000
4662.46 2808.84 2776.0 0.000000 0.000000 -10.000000
4655.46 2824.84 2776.0 0.000000 0.000000 -10.000000
4665.46 2872.84 2776.0 0.000000 0.000000 -10.000000
4636.46 2945.84 2744.0 0.000000 -3.350097 -9.422147
4642.46 3022.84 2728.0 0.000000 0.000000 -10.000000
4662.46 3118.84 2728.0 0.000000 0.000000 -10.000000
4663.46 3150.84 2728.0 0.000000 0.000000 -10.000000
4664.46 3192.84 2776.0 0.000000 0.000000 10.000000
4668.46 2983.84 2904.0 0.000000 0.000000 10.000000
4668.46 2951.84 2904.0 0.000000 0.000000 10.000000
4664.46 2853.84 3000.0 0.000000 6.853647 -7.282000
4655.46 2895.84 3064.0 0.000000 0.000000 -10.000000
4667.46 2927.84 3064.0 0.000000 0.000000 -10.000000
4646.46 2959.84 3064.0 0.000000 0.000000 -10.000000
4658.46 2991.84 3064.0 0.000000 0.000000 -10.000000
4669.46 3023.84 3064.0 0.000000 0.000000 -10.000000
4643.46 3024.84 2952.0 0.000000 -4.472136 -8.944272
4639.46 3056.84 2952.0 0.000000 0.000000 -10.000000
4667.46 3088.84 2952.0 0.000000 -4.472136 -8.944272
4669.46 3136.84 2952.0 0.000000 0.000000 -10.000000
4664.46 3168.84 2952.0 0.000000 0.000000 -10.000000
4670.46 3184.84 2952.0 0.000000 0.000000 -10.000000
4665.46 3248.84 3048.0 0.000000 0.000000 10.000000
4665.46 3184.84 3048.0 0.000000 0.000000 10.000000
4669.46 3143.84 3160.0 0.000000 4.472136 -8.944272
4664.46 3211.84 3192.0 0.000000 0.000000 -10.000000
4668.46 3331.84 3240.0 0.000000 0.000000 10.000000
4656.46 3235.84 3240.0 0.000000 0.000000 10.000000
4667.46 3038.84 3224.0 0.000000 0.000000 10.000000
4663.46 2974.84 3224.0 0.000000 0.000000 10.000000
4639.46 2887.84 3144.0 0.000000 0.000000 10.000000
4646.46 2871.84 3144.0 0.000000 0.000000 10.000000
4642.46 2839.84 3144.0 0.000000 0.000000 10.000000
4658.46 2865.84 3128.0 0.000000 0.000000 -10.000000
4670.46 2847.84 3064.0 0.000000 0.000000 10.000000
4664.46 2831.84 3064.0 0.000000 0.000000 10.000000
4670.46 2815.84 3064.0 0.000000 0.000000 10.000000
4655.46 2767.84 3064.0 0.000000 0.000000 10.000000
4637.46 2613.84 3000.0 0.000000 -9.956342 0.933407
4645.46 2608.84 2952.0 0.000000 -9.161573 4.008188
4653.46 2536.84 2920.0 0.000000 0.000000 10.000000
4643.46 2519.84 2904.0 0.000000 0.000000 -10.000000
4661.46 2551.84 2904.0 0.000000 0.000000 -10.000000
4664.46 2583.84 2904.0 0.000000 0.000000 -10.000000
4634.46 2615.84 2904.0 0.000000 -8.869141 -4.619344
4634.46 2712.84 2776.0 0.000000 -9.544800 -2.982750
4647.46 2702.84 2728.0 0.000000 -8.792920 4.762831
4655.46 2622.84 2728.0 0.000000 0.000000 10.000000
4639.46 2558.84 2728.0 0.000000 0.000000 10.000000
4661.46 2819.84 2696.0 0.000000 0.000000 10.000000
4666.46 1766.84 2392.0 0.000000 9.828722 -1.842885
4669.46 1783.84 2408.0 0.000000 8.831157 -4.691552
4669.46 1751.84 2424.0 0.000000 0.000000 10.000000
4670.46 1655.84 2408.0 0.000000 -4.472136 8.944272
4662.46 1595.84 2344.0 0.000000 0.000000 -10.000000
4667.46 1695.84 2360.0 0.000000 0.000000 -10.000000
4661.46 1713.84 2376.0 0.000000 4.257970 -9.048187
4639.46 1729.84 2376.0 0.000000 -8.792920 -4.762831
4666.46 1511.84 2424.0 0.000000 0.000000 -10.000000
4667.46 1575.84 2424.0 0.000000 0.000000 -10.000000
4667.46 1544.84 2456.0 0.000000 0.000000 10.000000
4666.46 1475.84 2520.0 0.000000 0.000000 10.000000
4665.46 1443.84 2520.0 0.000000 3.969112 9.178570
4670.46 1388.84 2600.0 0.000000 0.000000 10.000000
4637.46 1347.84 2472.0 0.000000 -8.360479 -5.486564
4643.46 1729.84 2648.0 0.000000 0.000000 10.000000
4670.46 1635.84 2680.0 0.000000 6.853647 -7.282000
4668.46 1681.84 2760.0 0.000000 9.652264 2.614155
4645.46 1614.84 2728.0 0.000000 -6.747692 7.380288
4668.46 1585.84 2648.0 0.000000 0.000000 -10.000000
4668.46 1854.84 2728.0 0.000000 0.000000 -10.000000
4661.46 1870.84 2728.0 0.000000 0.000000 -10.000000
4665.46 1991.84 2904.0 0.000000 0.000000 10.000000
4665.46 1952.84 3048.0 0.000000 6.060432 -7.954317
4661.46 1984.84 3048.0 0.000000 0.000000 -10.000000
4663.46 2031.84 3064.0 0.000000 0.000000 10.000000
4657.46 2015.84 3064.0 0.000000 0.000000 10.000000
4667.46 1999.84 3064.0 0.000000 0.000000 10.000000
4662.46 1878.84 3016.0 0.000000 0.000000 10.000000
4638.46 1861.84 3000.0 0.000000 -8.715755 -4.902612
4631.46 1872.84 2952.0 0.000000 -9.799873 1.990599
4652.46 1848.84 2936.0 0.000000 -3.713907 9.284767
4664.46 1768.84 2936.0 0.000000 -4.472136 8.944272
4667.46 1736.84 2920.0 0.000000 0.000000 10.000000
4642.46 1688.84 2920.0 0.000000 0.000000 10.000000
4641.46 1656.84 2920.0 0.000000 0.000000 10.000000
4656.46 1623.84 2904.0 0.000000 0.000000 -10.000000
4656.46 1655.84 2904.0 0.000000 0.000000 -10.000000
4665.46 1703.84 2904.0 0.000000 0.000000 -10.000000
4666.46 1809.84 2664.0 0.000000 0.000000 -10.000000
4646.46 2049.84 2744.0 0.000000 0.000000 -10.000000
4668.46 2097.84 2760.0 0.000000 4.472136 -8.944272
4657.46 2129.84 2760.0 0.000000 0.000000 -10.000000
4639.46 2056.84 2776.0 0.000000 0.000000 10.000000
4656.46 2017.84 2744.0 0.000000 -10.000000 0.000000
4669.46 2320.84 2952.0 0.000000 0.000000 -10.000000
4666.46 2343.84 3144.0 0.000000 6.961458 -7.179004
4664.46 2443.84 3192.0 0.000000 3.350097 -9.422147
4658.46 2507.84 3192.0 0.000000 0.000000 -10.000000
4667.46 2555.84 3192.0 0.000000 0.000000 -10.000000
4660.46 2571.84 3192.0 0.000000 0.000000 -10.000000
4666.46 2675.84 3240.0 0.000000 0.000000 10.000000
4636.46 2510.84 3224.0 0.000000 -8.000000 6.000000
4643.46 2491.84 3208.0 0.000000 -4.157598 9.094745
4664.46 2398.84 3224.0 0.000000 0.000000 10.000000
4666.46 2366.84 3224.0 0.000000 0.000000 10.000000
4658.46 2350.84 3224.0 0.000000 0.000000 10.000000
4663.46 2254.84 3224.0 0.000000 0.000000 10.000000
4665.46 2222.84 3224.0 0.000000 0.000000 10.000000
4657.46 2167.84 3144.0 0.000000 -6.343166 7.730734
4641.46 2135.84 3144.0 0.000000 0.000000 10.000000
4642.46 2143.84 3064.0 0.000000 0.000000 -10.000000
4663.46 2159.84 3064.0 0.000000 0.000000 -10.000000
4657.46 2256.84 2952.0 0.000000 0.000000 -10.000000
4636.46 4470.84 3032.0 0.000000 4.472136 -8.944272
4635.46 4591.84 3096.0 0.000000 3.635425 9.315776
4641.46 4339.84 3240.0 0.000000 0.000000 10.000000
4644.46 4275.84 3240.0 0.000000 0.000000 10.000000
4657.46 4227.84 3240.0 0.000000 0.000000 10.000000
4645.46 4147.84 3240.0 0.000000 0.000000 10.000000
4664.46 4303.84 3096.0 0.000000 0.000000 -10.000000
4658.46 4335.84 3096.0 0.000000 -7.071068 -7.071068
4670.46 4320.84 3048.0 0.000000 -3.222638 9.466499
4668.46 2835.84 2696.0 0.000000 6.541519 7.563632
4671.46 2824.84 2776.0 0.000000 8.792920 -4.762831
4663.46 2840.84 2776.0 0.000000 8.792920 -4.762831
4666.46 2904.84 2776.0 0.000000 -6.152709 -7.883158
4651.46 3038.84 2728.0 0.000000 0.000000 -10.000000
4671.46 3134.84 2728.0 0.000000 0.000000 -10.000000
4675.46 3166.84 2728.0 0.000000 0.000000 -10.000000
4678.46 3214.84 2728.0 0.000000 0.000000 -10.000000
4674.46 3230.84 2728.0 0.000000 0.000000 -10.000000
4673.46 3144.84 2776.0 0.000000 0.000000 10.000000
4649.46 3128.84 2776.0 0.000000 8.715755 4.902612
4647.46 3120.84 2952.0 0.000000 0.000000 -10.000000
4674.46 3286.84 3032.0 0.000000 4.472136 -8.944272
4676.46 3159.84 3160.0 0.000000 6.343166 -7.730734
4672.46 3363.84 3240.0 0.000000 0.000000 10.000000
4678.46 3347.84 3240.0 0.000000 0.000000 10.000000
4648.46 3299.84 3240.0 0.000000 0.000000 10.000000
4652.46 3070.84 3224.0 0.000000 0.000000 10.000000
4649.46 3006.84 3224.0 0.000000 0.000000 10.000000
4659.46 2935.84 3144.0 0.000000 0.000000 10.000000
4667.46 2903.84 3144.0 0.000000 0.000000 10.000000
4648.46 2849.84 3128.0 0.000000 0.000000 -10.000000
4652.46 2881.84 3128.0 0.000000 -9.230769 -3.846154
4676.46 2863.84 3064.0 0.000000 0.000000 10.000000
4649.46 2783.84 3064.0 0.000000 0.000000 10.000000
4651.46 2735.84 3064.0 0.000000 0.000000 10.000000
4663.46 2703.84 3064.0 0.000000 0.000000 10.000000
4646.46 2630.84 3016.0 0.000000 -6.060432 7.954317
4647.46 2472.84 2920.0 0.000000 -6.853647 7.282000
4677.46 2551.84 2904.0 0.000000 0.000000 -10.000000
4666.46 2615.84 2904.0 0.000000 0.000000 -10.000000
4676.46 2631.84 2904.0 0.000000 0.000000 -10.000000
4671.46 2686.84 2728.0 0.000000 0.000000 10.000000
4647.46 2670.84 2728.0 0.000000 0.000000 10.000000
4663.46 2638.84 2728.0 0.000000 0.000000 10.000000
4647.46 2606.84 2728.0 0.000000 0.000000 10.000000
4677.46 2723.84 2680.0 0.000000 0.000000 -10.000000
4668.46 2739.84 2680.0 0.000000 0.000000 -10.000000
4651.46 2803.84 2680.0 0.000000 0.000000 -10.000000
4663.46 2819.84 2680.0 0.000000 0.000000 -10.000000
4675.46 2851.84 2696.0 0.000000 6.541519 7.563632
4674.46 1735.84 2424.0 0.000000 0.000000 10.000000
4668.46 1703.84 2424.0 0.000000 0.000000 10.000000
4654.46 1336.84 2584.0 0.000000 -9.626509 -2.707456
4651.46 1418.84 2440.0 0.000000 0.000000 -10.000000
4667.46 1434.84 2440.0 0.000000 0.000000 -10.000000
4650.46 1527.84 2424.0 0.000000 0.000000 -10.000000
4671.46 1729.84 2376.0 0.000000 4.257970 -9.048187
4664.46 1745.84 2376.0 0.000000 -8.792920 -4.762831
4677.46 1688.84 2552.0 0.000000 9.828722 1.842885
4648.46 1697.84 2632.0 0.000000 -4.472136 8.944272
4670.46 1681.84 2632.0 0.000000 -3.222638 9.466499
4677.46 1662.84 2536.0 0.000000 0.000000 -10.000000
4671.46 1678.84 2536.0 0.000000 0.000000 -10.000000
4676.46 1619.84 2680.0 0.000000 6.853647 -7.282000
4674.46 1665.84 2760.0 0.000000 -6.747692 7.380288
4677.46 1614.84 2728.0 0.000000 0.000000 10.000000
4670.46 1598.84 2728.0 0.000000 0.000000 10.000000
4673.46 1507.84 2680.0 0.000000 -9.922779 1.240347
4674.46 1827.84 2680.0 0.000000 9.989032 0.468236
4678.46 1889.84 2744.0 0.000000 9.922779 1.240347
4673.46 1880.84 2776.0 0.000000 9.828722 -1.842885
4648.46 1985.84 2872.0 0.000000 0.000000 -10.000000
4673.46 2001.84 2872.0 0.000000 0.000000 -10.000000
4676.46 1909.84 3000.0 0.000000 9.161573 -4.008188
4652.46 2000.84 3048.0 0.000000 0.000000 -10.000000
4674.46 2016.84 3048.0 0.000000 0.000000 -10.000000
4673.46 2015.84 3064.0 0.000000 0.000000 10.000000
4671.46 1967.84 3064.0 0.000000 0.000000 10.000000
4649.46 1951.84 3064.0 0.000000 0.000000 10.000000
4677.46 1832.84 2936.0 0.000000 0.000000 10.000000
4674.46 1720.84 2920.0 0.000000 0.000000 10.000000
4650.46 1704.84 2920.0 0.000000 0.000000 10.000000
4673.46 1656.84 2920.0 0.000000 0.000000 10.000000
4648.46 1608.84 2920.0 0.000000 0.000000 10.000000
4672.46 1655.84 2904.0 0.000000 0.000000 -10.000000
4665.46 1671.84 2904.0 0.000000 0.000000 -10.000000
4674.46 1745.84 2760.0 0.000000 -9.264666 -3.763770
4673.46 2129.84 2760.0 0.000000 0.000000 -10.000000
4651.46 2145.84 2760.0 0.000000 0.000000 -10.000000
4672.46 2120.84 2776.0 0.000000 0.000000 10.000000
4665.46 2104.84 2776.0 0.000000 0.000000 10.000000
4665.46 2072.84 2776.0 0.000000 0.000000 10.000000
4678.46 2049.84 2744.0 0.000000 0.000000 -10.000000
4677.46 2475.84 3192.0 0.000000 0.000000 -10.000000
4652.46 2491.84 3192.0 0.000000 0.000000 -10.000000
4651.46 2606.84 3224.0 0.000000 6.747692 -7.380288
4668.46 2638.84 3224.0 0.000000 0.000000 -10.000000
4676.46 2659.84 3240.0 0.000000 0.000000 10.000000
4669.46 2643.84 3240.0 0.000000 0.000000 10.000000
4678.46 2627.84 3240.0 0.000000 0.000000 10.000000
4648.46 2595.84 3240.0 0.000000 0.000000 10.000000
4653.46 2531.84 3240.0 0.000000 0.000000 10.000000
4675.46 2491.84 3208.0 0.000000 0.000000 10.000000
4652.46 2475.84 3208.0 0.000000 0.000000 10.000000
4653.46 2443.84 3208.0 0.000000 0.000000 10.000000
4674.46 2350.84 3224.0 0.000000 0.000000 10.000000
4669.46 2302.84 3224.0 0.000000 0.000000 10.000000
4654.46 2270.84 3224.0 0.000000 0.000000 10.000000
4673.46 2167.84 3144.0 0.000000 -6.343166 7.730734
4649.46 2151.84 3144.0 0.000000 0.000000 10.000000
4652.46 2127.84 3064.0 0.000000 0.000000 -10.000000
4672.46 2191.84 3064.0 0.000000 0.000000 -10.000000
4643.46 2218.84 2984.0 0.000000 -9.880120 1.543769
4648.46 2272.84 2952.0 0.000000 0.000000 -10.000000
4671.46 2288.84 2952.0 0.000000 0.000000 -10.000000
4663.46 4565.84 3080.0 0.000000 3.880570 -9.216354
4640.46 4529.84 3128.0 0.000000 3.559953 9.344877
4650.46 4371.84 3240.0 0.000000 0.000000 10.000000
4653.46 4355.84 3240.0 0.000000 0.000000 10.000000
4654.46 4243.84 3240.0 0.000000 0.000000 10.000000
4650.46 4179.84 3240.0 0.000000 0.000000 10.000000
4677.46 4147.84 3240.0 0.000000 0.000000 10.000000
4651.46 4131.84 3240.0 0.000000 0.000000 10.000000
4672.46 4099.84 3240.0 0.000000 0.000000 10.000000
4674.46 4083.84 3240.0 0.000000 0.000000 10.000000
4680.46 1745.84 2376.0 0.000000 0.000000 -10.000000
4680.46 1767.84 2424.0 0.000000 0.000000 10.000000
4679.46 1719.84 2424.0 0.000000 0.000000 10.000000
4684.46 1703.84 2424.0 0.000000 0.000000 10.000000
4657.46 1687.84 2424.0 0.000000 0.000000 10.000000
4657.46 1679.84 2360.0 0.000000 -3.285206 -9.444968
4682.46 1511.84 2424.0 0.000000 0.000000 -10.000000
4682.46 1527.84 2424.0 0.000000 0.000000 -10.000000
4678.46 1512.84 2456.0 0.000000 6.541519 7.563632
4685.46 1493.84 2504.0 0.000000 10.000000 0.000000
4682.46 1475.84 2520.0 0.000000 0.000000 10.000000
4681.46 1443.84 2520.0 0.000000 3.969112 9.178570
4683.46 1404.84 2600.0 0.000000 0.000000 10.000000
4686.46 1388.84 2600.0 0.000000 0.000000 10.000000
4683.46 1646.84 2536.0 0.000000 0.000000 -10.000000
4659.46 1729.84 2648.0 0.000000 0.000000 10.000000
4673.46 1608.84 2584.0 0.000000 -4.061385 9.138115
4657.46 1630.84 2536.0 0.000000 0.000000 -10.000000
4680.46 1651.84 2680.0 0.000000 0.000000 -10.000000
4684.46 1681.84 2760.0 0.000000 0.000000 10.000000
4651.46 1630.84 2728.0 0.000000 -6.747692 7.380288
4650.46 1555.84 2696.0 0.000000 -8.715755 4.902612
4670.46 1555.84 2680.0 0.000000 -3.162278 9.486833
4684.46 1585.84 2648.0 0.000000 0.000000 -10.000000
4682.46 1809.84 2664.0 0.000000 0.000000 -10.000000
4655.46 1969.84 2872.0 0.000000 0.000000 -10.000000
4681.46 1991.84 2904.0 0.000000 0.000000 10.000000
4674.46 1975.84 2904.0 0.000000 0.000000 10.000000
4685.46 1925.84 3000.0 0.000000 9.161573 -4.008188
4681.46 1952.84 3048.0 0.000000 -8.869141 4.619344
4671.46 1968.84 3048.0 0.000000 0.000000 -10.000000
4684.46 2000.84 3048.0 0.000000 0.000000 -10.000000
4661.46 1983.84 3064.0 0.000000 0.000000 10.000000
4681.46 1951.84 3064.0 0.000000 0.000000 10.000000
4653.46 1894.84 3016.0 0.000000 -6.060432 7.954317
4679.46 1800.84 2936.0 0.000000 0.000000 10.000000
4682.46 1704.84 2920.0 0.000000 0.000000 10.000000
4658.46 1688.84 2920.0 0.000000 0.000000 10.000000
4681.46 1672.84 2920.0 0.000000 0.000000 10.000000
4680.46 1639.84 2904.0 0.000000 0.000000 -10.000000
4681.46 1671.84 2904.0 0.000000 0.000000 -10.000000
4657.46 1687.84 2904.0 0.000000 0.000000 -10.000000
4658.46 1719.84 2904.0 0.000000 -6.060432 -7.954317
4672.46 2856.84 2776.0 0.000000 8.792920 -4.762831
4673.46 2888.84 2776.0 0.000000 0.000000 -10.000000
4682.46 2904.84 2776.0 0.000000 0.000000 -10.000000
4658.46 2920.84 2776.0 0.000000 -6.152709 -7.883158
4684.46 3262.84 2728.0 0.000000 0.000000 -10.000000
4680.46 3192.84 2776.0 0.000000 8.715755 4.902612
4655.46 3056.84 2952.0 0.000000 8.869141 -4.619344
4679.46 3120.84 2952.0 0.000000 -4.472136 -8.944272
4659.46 3152.84 2952.0 0.000000 0.000000 -10.000000
4680.46 3168.84 2952.0 0.000000 0.000000 -10.000000
4681.46 3248.84 3048.0 0.000000 0.000000 10.000000
4673.46 3232.84 3048.0 0.000000 0.000000 10.000000
4681.46 3216.84 3048.0 0.000000 0.000000 10.000000
4657.46 3200.84 3048.0 0.000000 0.000000 10.000000
4657.46 3168.84 3048.0 0.000000 0.000000 10.000000
4686.46 3135.84 3096.0 0.000000 9.544800 -2.982750
4682.46 3243.84 3192.0 0.000000 3.350097 -9.422147
4684.46 3326.84 3224.0 0.000000 6.747692 -7.380288
4680.46 3379.84 3240.0 0.000000 0.000000 10.000000
4658.46 3315.84 3240.0 0.000000 0.000000 10.000000
4680.46 3299.84 3240.0 0.000000 0.000000 10.000000
4676.46 3267.84 3240.0 0.000000 0.000000 10.000000
4682.46 3251.84 3240.0 0.000000 0.000000 10.000000
4686.46 3134.84 3224.0 0.000000 0.000000 10.000000
4675.46 3054.84 3224.0 0.000000 0.000000 10.000000
4681.46 3006.84 3224.0 0.000000 0.000000 10.000000
4672.46 2990.84 3224.0 0.000000 0.000000 10.000000
4652.46 2955.84 3208.0 0.000000 -9.486833 -3.162278
4671.46 2951.84 3144.0 0.000000 -4.472136 8.944272
4679.46 2919.84 3144.0 0.000000 0.000000 10.000000
4662.46 2871.84 3144.0 0.000000 0.000000 10.000000
4686.46 2847.84 3064.0 0.000000 0.000000 10.000000
4680.46 2831.84 3064.0 0.000000 0.000000 10.000000
4676.46 2799.84 3064.0 0.000000 0.000000 10.000000
4683.46 2735.84 3064.0 0.000000 0.000000 10.000000
4654.46 2646.84 3016.0 0.000000 -6.060432 7.954317
4661.46 2608.84 2952.0 0.000000 -3.713907 9.284767
4678.46 2552.84 2920.0 0.000000 0.000000 10.000000
4659.46 2520.84 2920.0 0.000000 0.000000 10.000000
4675.46 2519.84 2904.0 0.000000 0.000000 -10.000000
4657.46 2599.84 2904.0 0.000000 0.000000 -10.000000
4682.46 2615.84 2904.0 0.000000 0.000000 -10.000000
4669.46 2647.84 2904.0 0.000000 0.000000 -10.000000
4647.46 2574.84 2712.0 0.000000 -3.969112 -9.178570
4662.46 2675.84 2680.0 0.000000 0.000000 -10.000000
4683.46 2803.84 2680.0 0.000000 0.000000 -10.000000
4679.46 2113.84 2760.0 0.000000 4.472136 -8.944272
4686.46 2152.84 2776.0 0.000000 0.000000 10.000000
4681.46 2104.84 2776.0 0.000000 0.000000 10.000000
4659.46 2033.84 2760.0 0.000000 -3.795564 9.251686
4683.46 2033.84 2744.0 0.000000 -7.071068 -7.071068
4683.46 2081.84 2744.0 0.000000 0.000000 -10.000000
4685.46 2320.84 2952.0 0.000000 0.000000 -10.000000
4684.46 2491.84 3192.0 0.000000 0.000000 -10.000000
4683.46 2555.84 3192.0 0.000000 0.000000 -10.000000
4660.46 2654.84 3224.0 0.000000 0.000000 -10.000000
4657.46 2691.84 3240.0 0.000000 9.544800 -2.982750
4682.46 2675.84 3240.0 0.000000 0.000000 10.000000
4685.46 2643.84 3240.0 0.000000 0.000000 10.000000
4671.46 2611.84 3240.0 0.000000 0.000000 10.000000
4674.46 2579.84 3240.0 0.000000 0.000000 10.000000
4684.46 2475.84 3208.0 0.000000 0.000000 10.000000
4676.46 2318.84 3224.0 0.000000 0.000000 10.000000
4685.46 2302.84 3224.0 0.000000 0.000000 10.000000
4679.46 2254.84 3224.0 0.000000 0.000000 10.000000
4684.46 2127.84 3064.0 0.000000 0.000000 -10.000000
4674.46 2143.84 3064.0 0.000000 0.000000 -10.000000
4680.46 2272.84 2952.0 0.000000 0.000000 -10.000000
4658.46 4549.84 3080.0 0.000000 3.880570 -9.216354
4671.46 4559.84 3096.0 0.000000 3.635425 9.315776
4660.46 4275.84 3240.0 0.000000 0.000000 10.000000
4676.46 4211.84 3240.0 0.000000 0.000000 10.000000
4656.46 4163.84 3240.0 0.000000 0.000000 10.000000
4685.46 4102.84 3112.0 0.000000 -3.635425 -9.315776
4687.46 2359.84 3144.0 0.000000 6.961458 -7.179004
4686.46 2459.84 3192.0 0.000000 3.350097 -9.422147
4665.46 2523.84 3192.0 0.000000 0.000000 -10.000000
4692.46 2571.84 3192.0 0.000000 0.000000 -10.000000
4667.46 2606.84 3224.0 0.000000 6.747692 -7.380288
4663.46 2707.84 3240.0 0.000000 9.544800 -2.982750
4689.46 2691.84 3240.0 0.000000 0.000000 10.000000
4664.46 2595.84 3240.0 0.000000 0.000000 10.000000
4667.46 2563.84 3240.0 0.000000 0.000000 10.000000
4659.46 2526.84 3224.0 0.000000 -8.000000 6.000000
4682.46 2507.84 3208.0 0.000000 0.000000 10.000000
4669.46 2443.84 3208.0 0.000000 3.350097 9.422147
4688.46 2414.84 3224.0 0.000000 3.350097 9.422147
4683.46 2334.84 3224.0 0.000000 0.000000 10.000000
4693.46 2286.84 3224.0 0.000000 0.000000 10.000000
4686.46 2270.84 3224.0 0.000000 0.000000 10.000000
4666.46 2190.84 3224.0 0.000000 -6.441357 7.649112
4681.46 2151.84 3144.0 0.000000 0.000000 10.000000
4690.46 2143.84 3064.0 0.000000 0.000000 -10.000000
4683.46 2175.84 3064.0 0.000000 0.000000 -10.000000
4693.46 2207.84 3064.0 0.000000 0.000000 -10.000000
4668.46 2240.84 2968.0 0.000000 -8.240419 -5.665288
4687.46 2288.84 2952.0 0.000000 0.000000 -10.000000
4691.46 1783.84 2424.0 0.000000 0.000000 10.000000
4669.46 1543.84 2424.0 0.000000 0.000000 -10.000000
4690.46 1591.84 2424.0 0.000000 0.000000 -10.000000
4691.46 1491.84 2520.0 0.000000 0.000000 10.000000
4681.46 1356.84 2600.0 0.000000 -6.246950 7.808688
4657.46 1400.84 2456.0 0.000000 -4.257970 -9.048187
4687.46 1708.84 2600.0 0.000000 9.264666 -3.763770
4692.46 1730.84 2616.0 0.000000 3.880570 -9.216354
4680.46 1697.84 2632.0 0.000000 -4.472136 8.944272
4659.46 1650.84 2616.0 0.000000 -8.360479 5.486564
4666.46 1624.84 2584.0 0.000000 -4.061385 9.138115
4656.46 1592.84 2552.0 0.000000 -3.880570 -9.216354
4683.46 1630.84 2728.0 0.000000 -6.747692 7.380288
4693.46 1614.84 2728.0 0.000000 0.000000 10.000000
4667.46 1907.84 2680.0 0.000000 -9.161573 -4.008188
4655.46 1923.84 2680.0 0.000000 0.000000 -10.000000
4661.46 1939.84 2680.0 0.000000 0.000000 -10.000000
4683.46 1955.84 2680.0 0.000000 0.000000 -10.000000
4677.46 1939.84 2696.0 0.000000 0.000000 10.000000
4663.46 1953.84 2872.0 0.000000 9.230769 -3.846154
4687.46 1969.84 2872.0 0.000000 9.230769 -3.846154
4664.46 1985.84 2872.0 0.000000 0.000000 -10.000000
4689.46 2001.84 2872.0 0.000000 0.000000 -10.000000
4683.46 1959.84 2904.0 0.000000 5.627910 8.265992
4687.46 1968.84 3048.0 0.000000 6.060432 -7.954317
4693.46 1984.84 3048.0 0.000000 0.000000 -10.000000
4689.46 2015.84 3064.0 0.000000 0.000000 10.000000
4685.46 1894.84 3016.0 0.000000 -6.853647 7.282000
4659.46 1864.84 2936.0 0.000000 -3.713907 9.284767
4668.46 1848.84 2936.0 0.000000 0.000000 10.000000
4670.46 1816.84 2936.0 0.000000 0.000000 10.000000
4664.46 1640.84 2920.0 0.000000 0.000000 10.000000
4682.46 1773.84 2840.0 0.000000 -6.152709 -7.883158
4683.46 1777.84 2760.0 0.000000 0.000000 10.000000
4693.46 1825.84 2664.0 0.000000 0.000000 -10.000000
4690.46 2920.84 2776.0 0.000000 0.000000 -10.000000
4667.46 2936.84 2776.0 0.000000 -6.152709 -7.883158
4669.46 2993.84 2744.0 0.000000 0.000000 -10.000000
4682.46 3198.84 2728.0 0.000000 0.000000 -10.000000
4688.46 3176.84 2776.0 0.000000 8.715755 4.902612
4681.46 3160.84 2776.0 0.000000 8.715755 4.902612
4688.46 3232.84 2952.0 0.000000 0.000000 -10.000000
4694.46 3248.84 2952.0 0.000000 0.000000 -10.000000
4689.46 3232.84 3048.0 0.000000 0.000000 10.000000
4665.46 3152.84 3048.0 0.000000 9.426272 3.338471
4694.46 3151.84 3096.0 0.000000 9.544800 -2.982750
4694.46 3291.84 3192.0 0.000000 0.000000 -10.000000
4688.46 3395.84 3240.0 0.000000 0.000000 10.000000
4688.46 3363.84 3240.0 0.000000 0.000000 10.000000
4686.46 3283.84 3240.0 0.000000 0.000000 10.000000
4692.46 3267.84 3240.0 0.000000 0.000000 10.000000
4688.46 3235.84 3240.0 0.000000 0.000000 10.000000
4679.46 3150.84 3224.0 0.000000 -3.969112 9.178570
4694.46 3118.84 3224.0 0.000000 0.000000 10.000000
4685.46 3102.84 3224.0 0.000000 0.000000 10.000000
4693.46 3086.84 3224.0 0.000000 0.000000 10.000000
4668.46 3070.84 3224.0 0.000000 0.000000 10.000000
4691.46 3054.84 3224.0 0.000000 0.000000 10.000000
4683.46 2967.84 3144.0 0.000000 0.000000 10.000000
4687.46 2951.84 3144.0 0.000000 0.000000 10.000000
4691.46 2935.84 3144.0 0.000000 0.000000 10.000000
4681.46 2879.84 3064.0 0.000000 0.000000 10.000000
4692.46 2799.84 3064.0 0.000000 0.000000 10.000000
4665.46 2783.84 3064.0 0.000000 0.000000 10.000000
4687.46 2767.84 3064.0 0.000000 0.000000 10.000000
4662.46 2662.84 3016.0 0.000000 -6.060432 7.954317
4655.46 2568.84 2920.0 0.000000 -4.472136 8.944272
4669.46 2536.84 2920.0 0.000000 0.000000 10.000000
4666.46 2504.84 2920.0 0.000000 0.000000 10.000000
4665.46 2503.84 2904.0 0.000000 0.000000 -10.000000
4668.46 2535.84 2904.0 0.000000 0.000000 -10.000000
4686.46 2567.84 2904.0 0.000000 0.000000 -10.000000
4662.46 2663.84 2904.0 0.000000 -8.869141 -4.619344
4673.46 2718.84 2728.0 0.000000 0.000000 10.000000
4663.46 2702.84 2728.0 0.000000 0.000000 10.000000
4687.46 2686.84 2728.0 0.000000 0.000000 10.000000
4663.46 2670.84 2728.0 0.000000 0.000000 10.000000
4655.46 2590.84 2712.0 0.000000 -3.969112 -9.178570
4682.46 2771.84 2680.0 0.000000 0.000000 -10.000000
4687.46 2851.84 2680.0 0.000000 0.000000 -10.000000
4689.46 2883.84 2696.0 0.000000 6.541519 7.563632
4689.46 2129.84 2760.0 0.000000 4.472136 -8.944272
4667.46 2145.84 2760.0 0.000000 0.000000 -10.000000
4679.46 2136.84 2776.0 0.000000 0.000000 10.000000
4688.46 2120.84 2776.0 0.000000 0.000000 10.000000
4689.46 2065.84 2744.0 0.000000 0.000000 -10.000000
4691.46 4198.84 3016.0 0.000000 0.000000 -10.000000
4689.46 4246.84 3016.0 0.000000 -3.222638 -9.466499
4689.46 4262.84 3016.0 0.000000 0.000000 -10.000000
4689.46 4278.84 3016.0 0.000000 0.000000 -10.000000
4689.46 4326.84 3016.0 0.000000 0.000000 -10.000000
4665.46 4465.84 3128.0 0.000000 3.969112 9.178570
4681.46 4259.84 3240.0 0.000000 0.000000 10.000000
4670.46 4243.84 3240.0 0.000000 0.000000 10.000000
4689.46 4227.84 3240.0 0.000000 0.000000 10.000000
4666.46 4179.84 3240.0 0.000000 0.000000 10.000000
4693.46 4147.84 3240.0 0.000000 0.000000 10.000000
4667.46 4131.84 3240.0 0.000000 0.000000 10.000000
4685.46 4115.84 3240.0 0.000000 0.000000 10.000000
4694.46 4051.84 3240.0 0.000000 0.000000 10.000000
4681.46 4035.84 3240.0 0.000000 0.000000 10.000000
4688.46 4086.84 3112.0 0.000000 -3.635425 -9.315776
4691.46 2755.84 2680.0 0.000000 0.000000 -10.000000
4698.46 2771.84 2680.0 0.000000 0.000000 -10.000000
4673.46 2787.84 2680.0 0.000000 0.000000 -10.000000
4699.46 2803.84 2680.0 0.000000 0.000000 -10.000000
4691.46 2835.84 2680.0 0.000000 0.000000 -10.000000
4699.46 2867.84 2680.0 0.000000 0.000000 -10.000000
4702.46 2899.84 2680.0 0.000000 0.000000 -10.000000
4696.46 2899.84 2696.0 0.000000 3.969112 9.178570
4697.46 2872.84 2776.0 0.000000 8.792920 -4.762831
4664.46 3009.84 2744.0 0.000000 0.000000 -10.000000
4675.46 3025.84 2744.0 0.000000 0.000000 -10.000000
4696.96 3278.84 2728.0 0.000000 0.000000 -10.000000
4695.46 3256.84 2776.0 0.000000 8.715755 4.902612
4695.46 3224.84 2776.0 0.000000 8.715755 4.902612
4672.46 3208.84 2776.0 0.000000 0.000000 10.000000
4693.46 3031.84 2904.0 0.000000 0.000000 10.000000
4701.46 3015.84 2904.0 0.000000 0.000000 10.000000
4693.46 2999.84 2904.0 0.000000 0.000000 10.000000
4700.46 2983.84 2904.0 0.000000 0.000000 10.000000
4676.46 2967.84 2904.0 0.000000 0.000000 10.000000
4684.46 2951.84 2904.0 0.000000 5.627910 8.265992
4702.46 2880.84 2952.0 0.000000 9.586469 2.845983
4681.46 2885.84 3000.0 0.000000 9.161573 -4.008188
4690.46 2901.84 3000.0 0.000000 0.000000 -10.000000
4699.46 2917.84 3000.0 0.000000 0.000000 -10.000000
4694.46 2959.84 3064.0 0.000000 3.222638 -9.466499
4700.46 2975.84 3064.0 0.000000 3.222638 -9.466499
4690.46 2991.84 3064.0 0.000000 0.000000 -10.000000
4696.46 3007.84 3064.0 0.000000 0.000000 -10.000000
4675.46 3039.84 3064.0 0.000000 0.000000 -10.000000
4665.46 3055.84 3064.0 0.000000 0.000000 -10.000000
4689.46 3071.84 3064.0 0.000000 0.000000 -10.000000
4681.46 3093.84 3000.0 0.000000 -3.487337 9.372219
4673.46 3077.84 3000.0 0.000000 -3.487337 9.372219
4664.46 3061.84 3000.0 0.000000 -3.487337 9.372219
4673.46 3104.84 2952.0 0.000000 -4.472136 -8.944272
4675.46 3152.84 2952.0 0.000000 0.000000 -10.000000
4702.46 3184.84 2952.0 0.000000 0.000000 -10.000000
4692.46 3200.84 2952.0 0.000000 0.000000 -10.000000
4700.46 3264.84 2952.0 0.000000 0.000000 -10.000000
4700.46 3296.84 3048.0 0.000000 0.000000 10.000000
4673.46 3200.84 3048.0 0.000000 0.000000 10.000000
4697.46 3411.84 3240.0 0.000000 0.000000 10.000000
4696.46 3379.84 3240.0 0.000000 0.000000 10.000000
4690.46 3315.84 3240.0 0.000000 0.000000 10.000000
4702.46 3283.84 3240.0 0.000000 0.000000 10.000000
4695.46 3150.84 3224.0 0.000000 0.000000 10.000000
4700.46 3070.84 3224.0 0.000000 0.000000 10.000000
4690.46 3022.84 3224.0 0.000000 0.000000 10.000000
4687.46 2895.84 3064.0 0.000000 0.000000 10.000000
4693.46 2751.84 3064.0 0.000000 0.000000 10.000000
4673.46 2719.84 3064.0 0.000000 0.000000 10.000000
4670.46 2678.84 3016.0 0.000000 -6.060432 7.954317
4667.46 2640.84 2952.0 0.000000 -9.161573 4.008188
4680.46 2584.84 2920.0 0.000000 0.000000 10.000000
4687.46 2568.84 2920.0 0.000000 0.000000 10.000000
4696.46 2583.84 2904.0 0.000000 0.000000 -10.000000
4689.46 2599.84 2904.0 0.000000 0.000000 -10.000000
4678.46 2663.84 2904.0 0.000000 0.000000 -10.000000
4672.46 2679.84 2904.0 0.000000 -8.869141 -4.619344
4667.46 2734.84 2728.0 0.000000 -8.792920 4.762831
4695.46 2702.84 2728.0 0.000000 0.000000 10.000000
4663.46 2606.84 2712.0 0.000000 -3.969112 -9.178570
4701.46 1815.84 2408.0 0.000000 4.362735 -8.998141
4695.46 1719.84 2424.0 0.000000 0.000000 10.000000
4673.46 1687.84 2424.0 0.000000 0.000000 10.000000
4694.46 1560.84 2456.0 0.000000 0.000000 10.000000
4673.46 1528.84 2456.0 0.000000 6.541519 7.563632
4690.46 1459.84 2520.0 0.000000 3.969112 9.178570
4695.46 1420.84 2600.0 0.000000 0.000000 10.000000
4702.46 1388.84 2600.0 0.000000 0.000000 10.000000
4673.46 1372.84 2600.0 0.000000 0.000000 10.000000
4689.46 1400.84 2456.0 0.000000 0.000000 -10.000000
4687.46 1450.84 2440.0 0.000000 0.000000 -10.000000
4698.46 1511.84 2424.0 0.000000 -3.350097 -9.422147
4701.46 1543.84 2424.0 0.000000 0.000000 -10.000000
4693.46 1559.84 2424.0 0.000000 0.000000 -10.000000
4665.46 1665.84 2376.0 0.000000 -6.152709 -7.883158
4690.46 1838.84 2728.0 0.000000 8.715755 -4.902612
4700.46 1854.84 2728.0 0.000000 8.715755 -4.902612
4677.46 1870.84 2728.0 0.000000 0.000000 -10.000000
4701.46 1886.84 2728.0 0.000000 0.000000 -10.000000
4701.46 1905.84 2744.0 0.000000 9.789804 -2.039543
4696.46 1985.84 2872.0 0.000000 0.000000 -10.000000
4699.46 1959.84 2904.0 0.000000 3.222638 9.466499
4700.46 2000.84 3048.0 0.000000 0.000000 -10.000000
4696.46 2032.84 3048.0 0.000000 0.000000 -10.000000
4701.46 2047.84 3064.0 0.000000 6.853647 7.282000
4677.46 1983.84 3064.0 0.000000 0.000000 10.000000
4675.46 1864.84 2936.0 0.000000 -3.713907 9.284767
4702.46 1816.84 2936.0 0.000000 0.000000 10.000000
4671.46 1784.84 2936.0 0.000000 0.000000 10.000000
4675.46 1752.84 2920.0 0.000000 -4.472136 8.944272
4674.46 1688.84 2920.0 0.000000 0.000000 10.000000
4696.46 1640.84 2920.0 0.000000 0.000000 10.000000
4688.46 1624.84 2920.0 0.000000 -6.853647 7.282000
4688.46 1623.84 2904.0 0.000000 0.000000 -10.000000
4673.46 1687.84 2904.0 0.000000 0.000000 -10.000000
4697.46 1703.84 2904.0 0.000000 0.000000 -10.000000
4690.46 1719.84 2904.0 0.000000 0.000000 -10.000000
4677.46 1761.84 2760.0 0.000000 -10.000000 0.000000
4675.46 1745.84 2648.0 0.000000 0.000000 10.000000
4675.46 1713.84 2632.0 0.000000 -4.472136 8.944272
4696.46 1697.84 2632.0 0.000000 -3.222638 9.466499
4699.46 1630.84 2728.0 0.000000 0.000000 10.000000
4699.46 1523.84 2680.0 0.000000 -9.161573 -4.008188
4671.46 1569.84 2648.0 0.000000 0.000000 -10.000000
4671.46 1923.84 2680.0 0.000000 0.000000 -10.000000
4677.46 1939.84 2680.0 0.000000 0.000000 -10.000000
4699.46 2145.84 2760.0 0.000000 0.000000 -10.000000
4674.46 2088.84 2776.0 0.000000 0.000000 10.000000
4700.46 2491.84 3192.0 0.000000 0.000000 -10.000000
4674.46 2507.84 3192.0 0.000000 0.000000 -10.000000
4674.46 2539.84 3192.0 0.000000 0.000000 -10.000000
4699.46 2606.84 3224.0 0.000000 6.747692 -7.380288
4675.46 2622.84 3224.0 0.000000 6.747692 -7.380288
4700.46 2638.84 3224.0 0.000000 0.000000 -10.000000
4692.46 2654.84 3224.0 0.000000 0.000000 -10.000000
4695.46 2707.84 3240.0 0.000000 9.544800 -2.982750
4676.46 2459.84 3208.0 0.000000 0.000000 10.000000
4701.46 2443.84 3208.0 0.000000 3.350097 9.422147
4696.46 2398.84 3224.0 0.000000 0.000000 10.000000
4673.46 2382.84 3224.0 0.000000 0.000000 10.000000
4698.46 2366.84 3224.0 0.000000 0.000000 10.000000
4701.46 2302.84 3224.0 0.000000 0.000000 10.000000
4688.46 2238.84 3224.0 0.000000 0.000000 10.000000
4673.46 2206.84 3224.0 0.000000 0.000000 10.000000
4697.46 2151.84 3144.0 0.000000 0.000000 10.000000
4678.46 2111.84 3064.0 0.000000 -8.479983 -5.299989
4699.46 2175.84 3064.0 0.000000 0.000000 -10.000000
4664.46 2245.84 3000.0 0.000000 -9.965458 -0.830455
4667.46 2234.84 2984.0 0.000000 -9.880120 1.543769
4694.46 2304.84 2952.0 0.000000 0.000000 -10.000000
4689.46 4294.84 3016.0 0.000000 0.000000 -10.000000
4689.46 4310.84 3016.0 0.000000 0.000000 -10.000000
4689.46 4342.84 3016.0 0.000000 0.000000 -10.000000
4673.46 4358.84 3016.0 0.000000 0.000000 -10.000000
4667.46 4495.84 3064.0 0.000000 6.152709 -7.883158
4677.46 4533.84 3080.0 0.000000 0.000000 -10.000000
4673.46 4543.84 3096.0 0.000000 0.000000 10.000000
4676.46 4527.84 3096.0 0.000000 0.000000 10.000000
4678.46 4511.84 3096.0 0.000000 3.635425 9.315776
4667.46 4449.84 3128.0 0.000000 3.559953 9.344877
4694.46 4195.84 3240.0 0.000000 0.000000 10.000000
4672.46 4163.84 3240.0 0.000000 0.000000 10.000000
4692.46 4067.84 3240.0 0.000000 0.000000 10.000000
4699.46 3939.84 3240.0 0.000000 0.000000 10.000000
4702.46 3838.84 3224.0 0.000000 -3.969112 9.178570
4700.46 4070.84 3032.0 0.000000 -4.472136 -8.944272
4707.46 3296.84 2968.0 0.000000 4.472136 -8.944272
4707.46 3312.84 3048.0 0.000000 0.000000 10.000000
4703.46 3264.84 3048.0 0.000000 0.000000 10.000000
4709.46 3206.84 3112.0 0.000000 3.795564 -9.251686
4710.46 3291.84 3192.0 0.000000 3.350097 -9.422147
4703.46 3307.84 3192.0 0.000000 3.350097 -9.422147
4705.46 3374.84 3224.0 0.000000 6.747692 -7.380288
4684.46 3331.84 3240.0 0.000000 0.000000 10.000000
4706.46 3315.84 3240.0 0.000000 0.000000 10.000000
4687.46 3166.84 3224.0 0.000000 0.000000 10.000000
4683.46 3038.84 3224.0 0.000000 0.000000 10.000000
4695.46 2983.84 3144.0 0.000000 -4.472136 8.944272
4709.46 2911.84 3064.0 0.000000 0.000000 10.000000
4686.46 2815.84 3064.0 0.000000 0.000000 10.000000
4697.46 2783.84 3064.0 0.000000 0.000000 10.000000
4703.46 2767.84 3064.0 0.000000 0.000000 10.000000
4678.46 2656.84 2952.0 0.000000 -9.161573 4.008188
4683.46 2640.84 2952.0 0.000000 0.000000 10.000000
4703.46 2568.84 2920.0 0.000000 0.000000 10.000000
4684.46 2535.84 2904.0 0.000000 0.000000 -10.000000
4701.46 2647.84 2904.0 0.000000 0.000000 -10.000000
4710.46 2663.84 2904.0 0.000000 0.000000 -10.000000
4704.46 2679.84 2904.0 0.000000 0.000000 -10.000000
4681.46 2695.84 2904.0 0.000000 -8.869141 -4.619344
4677.46 2750.84 2728.0 0.000000 -8.792920 4.762831
4683.46 2734.84 2728.0 0.000000 0.000000 10.000000
4705.46 2718.84 2728.0 0.000000 0.000000 10.000000
4679.46 2670.84 2728.0 0.000000 0.000000 10.000000
4671.46 2622.84 2712.0 0.000000 -3.969112 -9.178570
4678.46 2675.84 2696.0 0.000000 -4.472136 -8.944272
4700.46 2739.84 2680.0 0.000000 -4.472136 -8.944272
4707.46 2755.84 2680.0 0.000000 0.000000 -10.000000
4695.46 2819.84 2680.0 0.000000 0.000000 -10.000000
4707.46 2835.84 2680.0 0.000000 0.000000 -10.000000
4704.46 2931.84 2680.0 0.000000 0.000000 -10.000000
4710.46 2931.84 2696.0 0.000000 3.969112 9.178570
4703.46 2915.84 2696.0 0.000000 3.969112 9.178570
4705.46 2888.84 2776.0 0.000000 8.792920 -4.762831
4699.46 2936.84 2776.0 0.000000 0.000000 -10.000000
4677.46 2952.84 2776.0 0.000000 -6.152709 -7.883158
4692.46 3073.84 2744.0 0.000000 0.000000 -10.000000
4672.46 3246.84 2728.0 0.000000 0.000000 -10.000000
4703.46 3240.84 2776.0 0.000000 0.000000 10.000000
4710.46 3063.84 2904.0 0.000000 0.000000 10.000000
4709.46 3031.84 2904.0 0.000000 0.000000 10.000000
4708.46 2967.84 2904.0 0.000000 5.627910 8.265992
4708.46 2896.84 2952.0 0.000000 9.586469 2.845983
4706.46 2901.84 3000.0 0.000000 9.161573 -4.008188
4707.46 2933.84 3000.0 0.000000 0.000000 -10.000000
4685.46 3023.84 3064.0 0.000000 0.000000 -10.000000
4697.46 3055.84 3064.0 0.000000 0.000000 -10.000000
4705.46 3103.84 3064.0 0.000000 0.000000 -10.000000
4690.46 3109.84 3000.0 0.000000 -3.487337 9.372219
4685.46 3136.84 2952.0 0.000000 0.000000 -10.000000
4708.46 3200.84 2952.0 0.000000 0.000000 -10.000000
4698.46 3216.84 2952.0 0.000000 0.000000 -10.000000
4704.46 3232.84 2952.0 0.000000 0.000000 -10.000000
4710.46 3248.84 2952.0 0.000000 0.000000 -10.000000
4706.46 3280.84 2952.0 0.000000 0.000000 -10.000000
4710.46 2304.84 2952.0 0.000000 0.000000 -10.000000
4705.46 2335.84 3096.0 0.000000 8.831157 -4.691552
4703.46 2359.84 3144.0 0.000000 6.961458 -7.179004
4706.46 2507.84 3192.0 0.000000 0.000000 -10.000000
4697.46 2523.84 3192.0 0.000000 0.000000 -10.000000
4706.46 2539.84 3192.0 0.000000 0.000000 -10.000000
4708.46 2571.84 3192.0 0.000000 0.000000 -10.000000
4700.46 2670.84 3224.0 0.000000 0.000000 -10.000000
4705.46 2691.84 3240.0 0.000000 0.000000 10.000000
4696.46 2595.84 3240.0 0.000000 0.000000 10.000000
4682.46 2542.84 3224.0 0.000000 -6.246950 7.808688
4674.46 2523.84 3208.0 0.000000 -4.157598 9.094745
4705.46 2382.84 3224.0 0.000000 0.000000 10.000000
4706.46 2350.84 3224.0 0.000000 0.000000 10.000000
4708.46 2318.84 3224.0 0.000000 0.000000 10.000000
4704.46 2238.84 3224.0 0.000000 0.000000 10.000000
4681.46 2222.84 3224.0 0.000000 0.000000 10.000000
4705.46 2167.84 3144.0 0.000000 -6.343166 7.730734
4709.46 2133.84 3080.0 0.000000 -8.637789 5.038710
4695.46 2159.84 3064.0 0.000000 0.000000 -10.000000
4704.46 2191.84 3064.0 0.000000 0.000000 -10.000000
4707.46 1710.84 2536.0 0.000000 0.000000 -10.000000
4705.46 1761.84 2648.0 0.000000 0.000000 10.000000
4698.46 1624.84 2584.0 0.000000 -4.472136 8.944272
4706.46 1761.84 2376.0 0.000000 0.000000 -10.000000
4704.46 1799.84 2424.0 0.000000 0.000000 10.000000
4701.46 1751.84 2424.0 0.000000 0.000000 10.000000
4683.46 1695.84 2360.0 0.000000 -3.285206 -9.444968
4699.46 1575.84 2424.0 0.000000 0.000000 -10.000000
4706.46 1591.84 2424.0 0.000000 0.000000 -10.000000
4710.46 1560.84 2456.0 0.000000 6.541519 7.563632
4699.46 1544.84 2456.0 0.000000 0.000000 10.000000
4708.46 1507.84 2488.0 0.000000 9.298066 3.680485
4708.46 1436.84 2600.0 0.000000 0.000000 10.000000
4705.46 1372.84 2600.0 0.000000 -6.246950 7.808688
4679.46 1352.84 2584.0 0.000000 -9.995121 -0.312348
4682.46 1416.84 2456.0 0.000000 -4.257970 -9.048187
4679.46 1466.84 2440.0 0.000000 -3.350097 -9.422147
4686.46 1635.84 2680.0 0.000000 6.853647 -7.282000
4706.46 1667.84 2680.0 0.000000 0.000000 -10.000000
4684.46 1697.84 2760.0 0.000000 9.652264 2.614155
4675.46 1646.84 2728.0 0.000000 -6.747692 7.380288
4672.46 1571.84 2696.0 0.000000 -8.559155 5.171156
4703.46 1569.84 2648.0 0.000000 0.000000 -10.000000
4696.46 1601.84 2648.0 0.000000 0.000000 -10.000000
4704.46 2007.84 2904.0 0.000000 0.000000 10.000000
4706.46 2016.84 3048.0 0.000000 0.000000 -10.000000
4695.46 2031.84 3064.0 0.000000 0.000000 10.000000
4699.46 1999.84 3064.0 0.000000 0.000000 10.000000
4709.46 1983.84 3064.0 0.000000 0.000000 10.000000
4677.46 1910.84 3016.0 0.000000 -6.060432 7.954317
4698.46 1880.84 2936.0 0.000000 -3.713907 9.284767
4707.46 1864.84 2936.0 0.000000 0.000000 10.000000
4684.46 1848.84 2936.0 0.000000 0.000000 10.000000
4683.46 1736.84 2920.0 0.000000 0.000000 10.000000
4705.46 1656.84 2920.0 0.000000 0.000000 10.000000
4704.46 1655.84 2904.0 0.000000 0.000000 -10.000000
4709.46 1761.84 2760.0 0.000000 -9.264666 -3.763770
4673.46 1795.84 2680.0 0.000000 -9.989032 -0.468236
4710.46 2049.84 2744.0 0.000000 0.000000 -10.000000
4709.46 2168.84 2776.0 0.000000 0.000000 10.000000
4704.46 2120.84 2776.0 0.000000 0.000000 10.000000
4706.46 2088.84 2776.0 0.000000 0.000000 10.000000
4697.46 2072.84 2776.0 0.000000 -3.795564 9.251686
4710.46 4102.84 3016.0 0.000000 0.000000 -10.000000
4709.46 4134.84 3016.0 0.000000 0.000000 -10.000000
4708.46 4150.84 3016.0 0.000000 0.000000 -10.000000
4707.46 4198.84 3016.0 0.000000 0.000000 -10.000000
4706.46 4230.84 3016.0 0.000000 0.000000 -10.000000
4705.46 4262.84 3016.0 0.000000 0.000000 -10.000000
4705.46 4278.84 3016.0 0.000000 0.000000 -10.000000
4705.46 4310.84 3016.0 0.000000 0.000000 -10.000000
4705.46 4326.84 3016.0 0.000000 0.000000 -10.000000
4679.46 4517.84 3080.0 0.000000 3.880570 -9.216354
4708.46 4211.84 3240.0 0.000000 0.000000 10.000000
4710.46 4195.84 3240.0 0.000000 0.000000 10.000000
4682.46 4179.84 3240.0 0.000000 0.000000 10.000000
4699.46 4131.84 3240.0 0.000000 0.000000 10.000000
4704.46 4099.84 3240.0 0.000000 0.000000 10.000000
4708.46 4067.84 3240.0 0.000000 0.000000 10.000000
4699.46 4019.84 3240.0 0.000000 0.000000 10.000000
4686.46 4003.84 3240.0 0.000000 0.000000 10.000000
4704.46 3891.84 3240.0 0.000000 0.000000 10.000000
4704.46 3991.84 3160.0 0.000000 -4.472136 -8.944272
4705.46 4038.84 3032.0 0.000000 -9.626509 2.707456
4702.46 4054.84 3032.0 0.000000 0.000000 -10.000000
4715.46 2862.84 2728.0 0.000000 9.956342 0.933407
4693.46 2952.84 2776.0 0.000000 0.000000 -10.000000
4703.46 2968.84 2776.0 0.000000 0.000000 -10.000000
4697.46 2984.84 2776.0 0.000000 0.000000 -10.000000
4679.46 3105.84 2744.0 0.000000 0.000000 -10.000000
4687.46 3121.84 2744.0 0.000000 0.000000 -10.000000
4690.46 3230.84 2728.0 0.000000 0.000000 -10.000000
4711.46 3288.84 2776.0 0.000000 8.715755 4.902612
4688.46 3208.84 2776.0 0.000000 8.715755 4.902612
4718.46 3079.84 2904.0 0.000000 0.000000 10.000000
4714.46 2912.84 2952.0 0.000000 9.586469 2.845983
4715.46 2917.84 3000.0 0.000000 9.161573 -4.008188
4716.46 2949.84 3000.0 0.000000 9.161573 -4.008188
4712.46 3007.84 3064.0 0.000000 3.222638 -9.466499
4717.46 3023.84 3064.0 0.000000 3.222638 -9.466499
4691.46 3039.84 3064.0 0.000000 0.000000 -10.000000
4713.46 3087.84 3064.0 0.000000 0.000000 -10.000000
4698.46 3125.84 3000.0 0.000000 0.000000 10.000000
4707.46 3152.84 2952.0 0.000000 8.869141 -4.619344
4710.46 3280.84 3048.0 0.000000 0.000000 10.000000
4712.46 3323.84 3192.0 0.000000 0.000000 -10.000000
4712.46 3390.84 3224.0 0.000000 0.000000 -10.000000
4713.46 3411.84 3240.0 0.000000 0.000000 10.000000
4710.46 3347.84 3240.0 0.000000 0.000000 10.000000
4698.46 3182.84 3224.0 0.000000 0.000000 10.000000
4711.46 3150.84 3224.0 0.000000 0.000000 10.000000
4716.46 3070.84 3224.0 0.000000 0.000000 10.000000
4711.46 2983.84 3144.0 0.000000 0.000000 10.000000
4683.46 2927.84 3064.0 0.000000 -3.880570 9.216354
4708.46 2863.84 3064.0 0.000000 0.000000 10.000000
4712.46 2831.84 3064.0 0.000000 0.000000 10.000000
4718.46 2815.84 3064.0 0.000000 0.000000 10.000000
4688.46 2672.84 2952.0 0.000000 0.000000 10.000000
4694.46 2656.84 2952.0 0.000000 0.000000 10.000000
4706.46 2600.84 2920.0 0.000000 0.000000 10.000000
