4196.460000 1943.840000 2904.000000 0.000000 -6.060432 -7.954317
4191.460000 1968.840000 2856.000000 0.000000 -9.363292 -3.511234
4199.460000 1978.840000 2792.000000 0.000000 -8.000000 6.000000
4198.460000 2040.840000 2776.000000 0.000000 0.000000 -10.000000
4242.460000 2088.840000 2776.000000 0.000000 0.000000 -10.000000
4247.460000 2136.840000 2776.000000 0.000000 0.000000 -10.000000
4245.460000 2168.840000 2776.000000 0.000000 0.000000 -10.000000
4192.460000 2193.840000 2744.000000 0.000000 -9.090648 -4.166547
4203.460000 2051.840000 2680.000000 0.000000 -10.000000 0.000000
4206.460000 1233.840000 2184.000000 0.000000 4.472136 -8.944272
4256.460000 1450.840000 2312.000000 0.000000 0.000000 -10.000000
4251.460000 1483.840000 2344.000000 0.000000 9.161573 4.008188
4248.460000 1176.840000 2456.000000 0.000000 3.969112 9.178570
4254.460000 1155.840000 2472.000000 0.000000 8.080075 5.891722
4253.460000 1141.840000 2504.000000 0.000000 10.000000 0.000000
4251.460000 1139.840000 2520.000000 0.000000 3.969112 9.178570
4249.460000 1102.840000 2536.000000 0.000000 0.000000 10.000000
4250.460000 1064.840000 2584.000000 0.000000 9.626509 2.707456
4207.460000 917.840000 2504.000000 0.000000 -6.152709 7.883158
4206.460000 915.840000 2488.000000 0.000000 0.000000 -10.000000
4252.460000 1175.840000 2424.000000 0.000000 0.000000 -10.000000
4207.460000 1343.840000 2360.000000 0.000000 -5.881717 -8.087361
4257.460000 1278.840000 2536.000000 0.000000 -5.881717 -8.087361
4256.460000 1457.840000 2648.000000 0.000000 0.000000 10.000000
4210.460000 1425.840000 2648.000000 0.000000 0.000000 10.000000
4256.460000 1395.840000 2696.000000 0.000000 6.853647 -7.282000
4222.460000 1313.840000 2648.000000 0.000000 0.000000 -10.000000
4236.460000 1304.840000 2584.000000 0.000000 0.000000 10.000000
4200.460000 1224.840000 2552.000000 0.000000 -7.761140 6.305926
4248.460000 1601.840000 2664.000000 0.000000 0.000000 -10.000000
4254.460000 1635.840000 2680.000000 0.000000 4.257970 -9.048187
4254.460000 1699.840000 2696.000000 0.000000 6.541519 7.563632
4257.460000 1702.840000 2808.000000 0.000000 0.000000 -10.000000
4248.460000 1639.840000 2904.000000 0.000000 5.627910 8.265992
4243.460000 1605.840000 3000.000000 0.000000 9.161573 -4.008188
4208.460000 1621.840000 3000.000000 0.000000 0.000000 -10.000000
4252.460000 1637.840000 3000.000000 0.000000 0.000000 -10.000000
4249.460000 1653.840000 3000.000000 0.000000 0.000000 -10.000000
4250.460000 1654.840000 3016.000000 0.000000 6.441357 7.649112
4251.460000 1631.840000 3064.000000 0.000000 0.000000 10.000000
4257.460000 1567.840000 3064.000000 0.000000 0.000000 10.000000
4227.460000 1535.840000 3064.000000 0.000000 0.000000 10.000000
4213.460000 1503.840000 3064.000000 0.000000 -9.980526 -0.623783
4206.460000 1528.840000 2936.000000 0.000000 -3.713907 9.284767
4209.460000 1399.840000 2904.000000 0.000000 0.000000 -10.000000
4257.460000 1431.840000 2904.000000 0.000000 0.000000 -10.000000
4201.460000 1498.840000 2792.000000 0.000000 -8.715755 -4.902612
4204.460000 1544.840000 2776.000000 0.000000 -6.152709 -7.883158
4200.460000 1582.840000 2728.000000 0.000000 -9.995121 -0.312348
4248.460000 1571.840000 2680.000000 0.000000 -8.715755 4.902612
4226.460000 1553.840000 2664.000000 0.000000 0.000000 -10.000000
4226.460000 2131.840000 2680.000000 0.000000 0.000000 -10.000000
4250.460000 2286.840000 2728.000000 0.000000 -9.672310 2.538981
4253.460000 2366.840000 2728.000000 0.000000 0.000000 -10.000000
4251.460000 2398.840000 2728.000000 0.000000 0.000000 -10.000000
4249.460000 2430.840000 2728.000000 0.000000 0.000000 -10.000000
4253.460000 2462.840000 2728.000000 0.000000 0.000000 -10.000000
4254.460000 2465.840000 2744.000000 0.000000 8.598547 -5.105388
4248.460000 2311.840000 2904.000000 0.000000 0.000000 10.000000
4251.460000 2279.840000 2904.000000 0.000000 0.000000 10.000000
4253.460000 2247.840000 2904.000000 0.000000 5.627910 8.265992
4248.460000 2245.840000 3000.000000 0.000000 0.000000 -10.000000
4211.460000 2255.840000 3064.000000 0.000000 -8.479983 -5.299989
4204.460000 2287.840000 3064.000000 0.000000 0.000000 -10.000000
4225.460000 2303.840000 3064.000000 0.000000 0.000000 -10.000000
4210.460000 2368.840000 2952.000000 0.000000 -4.472136 -8.944272
4212.460000 2512.840000 2952.000000 0.000000 0.000000 -10.000000
4255.460000 2528.840000 2952.000000 0.000000 0.000000 -10.000000
4255.460000 2576.840000 2952.000000 0.000000 0.000000 -10.000000
4252.460000 2575.840000 3096.000000 0.000000 9.956342 -0.933407
4251.460000 2582.840000 3112.000000 0.000000 9.980526 -0.623783
4257.460000 2651.840000 3192.000000 0.000000 3.350097 -9.422147
4257.460000 2771.840000 3240.000000 0.000000 0.000000 10.000000
4212.460000 2739.840000 3240.000000 0.000000 0.000000 10.000000
4254.460000 2723.840000 3240.000000 0.000000 0.000000 10.000000
4257.460000 2691.840000 3240.000000 0.000000 0.000000 10.000000
4205.460000 2643.840000 3240.000000 0.000000 0.000000 10.000000
4212.460000 2547.840000 3240.000000 0.000000 0.000000 10.000000
4221.460000 2531.840000 3240.000000 0.000000 0.000000 10.000000
4252.460000 2483.840000 3240.000000 0.000000 0.000000 10.000000
4251.460000 2435.840000 3240.000000 0.000000 0.000000 10.000000
4248.460000 2355.840000 3240.000000 0.000000 0.000000 10.000000
4213.460000 2291.840000 3240.000000 0.000000 0.000000 10.000000
4242.460000 2126.840000 3224.000000 0.000000 0.000000 10.000000
4204.460000 2110.840000 3224.000000 0.000000 0.000000 10.000000
4246.460000 2094.840000 3224.000000 0.000000 0.000000 10.000000
4212.460000 1966.840000 3224.000000 0.000000 0.000000 10.000000
4256.460000 1918.840000 3224.000000 0.000000 0.000000 10.000000
4207.460000 1822.840000 3176.000000 0.000000 -5.795238 8.149553
4208.460000 1807.840000 3064.000000 0.000000 -8.479983 -5.299989
4220.460000 1839.840000 3064.000000 0.000000 0.000000 -10.000000
4199.460000 1882.840000 2984.000000 0.000000 -9.456866 -3.250798
4199.460000 1888.840000 2968.000000 0.000000 -9.995121 0.312348
4229.460000 1880.840000 2920.000000 0.000000 0.000000 10.000000
4221.460000 1864.840000 2920.000000 0.000000 -4.362735 8.998141
4212.460000 1847.840000 2904.000000 0.000000 -7.295372 -6.839411
4221.460000 1927.840000 2904.000000 0.000000 0.000000 -10.000000
4212.460000 1943.840000 2904.000000 0.000000 0.000000 -10.000000
4251.460000 1959.840000 2904.000000 0.000000 -8.869141 -4.619344
4208.460000 1994.840000 2792.000000 0.000000 -8.000000 6.000000
4256.460000 2120.840000 2776.000000 0.000000 0.000000 -10.000000
4254.460000 2152.840000 2776.000000 0.000000 0.000000 -10.000000
4236.460000 2184.840000 2776.000000 0.000000 0.000000 -10.000000
4202.460000 2209.840000 2744.000000 0.000000 -9.090648 -4.166547
4219.460000 2131.840000 2696.000000 0.000000 0.000000 10.000000
4236.460000 2099.840000 2680.000000 0.000000 0.000000 -10.000000
4258.460000 2131.840000 2680.000000 0.000000 -10.000000 0.000000
4263.460000 2163.840000 2680.000000 0.000000 -10.000000 0.000000
4233.460000 2318.840000 2728.000000 0.000000 0.000000 -10.000000
4263.460000 2350.840000 2728.000000 0.000000 0.000000 -10.000000
4260.460000 2382.840000 2728.000000 0.000000 0.000000 -10.000000
4258.460000 2414.840000 2728.000000 0.000000 0.000000 -10.000000
4262.960000 2478.840000 2728.000000 0.000000 0.000000 -10.000000
4262.460000 2481.840000 2744.000000 0.000000 8.598547 -5.105388
4262.460000 2513.840000 2760.000000 0.000000 4.472136 -8.944272
4265.460000 2440.840000 2776.000000 0.000000 8.715755 4.902612
4264.460000 2311.840000 2904.000000 0.000000 5.627910 8.265992
4258.460000 2295.840000 2904.000000 0.000000 0.000000 10.000000
4262.460000 2192.840000 2952.000000 0.000000 9.586469 2.845983
4264.460000 2246.840000 3016.000000 0.000000 0.000000 10.000000
4267.460000 2175.840000 3064.000000 0.000000 7.071068 7.071068
4263.460000 2159.840000 3064.000000 0.000000 7.071068 7.071068
4258.460000 2143.840000 3064.000000 0.000000 7.071068 7.071068
4245.460000 2127.840000 3096.000000 0.000000 9.995121 -0.312348
4217.460000 2161.840000 3128.000000 0.000000 0.000000 -10.000000
4223.460000 2177.840000 3128.000000 0.000000 0.000000 -10.000000
4229.460000 2193.840000 3128.000000 0.000000 0.000000 -10.000000
4219.460000 2209.840000 3128.000000 0.000000 0.000000 -10.000000
4225.460000 2225.840000 3128.000000 0.000000 0.000000 -10.000000
4249.460000 2241.840000 3128.000000 0.000000 0.000000 -10.000000
4213.460000 2271.840000 3096.000000 0.000000 -9.230769 -3.846154
4220.460000 2287.840000 3064.000000 0.000000 -5.240974 -8.516583
4214.460000 2319.840000 3064.000000 0.000000 -6.343166 -7.730734
4217.460000 2384.840000 2952.000000 0.000000 0.000000 -10.000000
4262.460000 2591.840000 3096.000000 0.000000 9.544800 -2.982750
4264.460000 2577.840000 3128.000000 0.000000 8.400394 5.425254
4258.460000 2590.840000 3176.000000 0.000000 3.795564 -9.251686
4266.460000 2606.840000 3176.000000 0.000000 8.559155 -5.171156
4218.460000 2667.840000 3192.000000 0.000000 0.000000 -10.000000
4262.460000 2819.840000 3240.000000 0.000000 0.000000 10.000000
4253.460000 2643.840000 3240.000000 0.000000 0.000000 10.000000
4230.460000 2627.840000 3240.000000 0.000000 0.000000 10.000000
4264.460000 2595.840000 3240.000000 0.000000 0.000000 10.000000
4267.460000 2563.840000 3240.000000 0.000000 0.000000 10.000000
4260.460000 2547.840000 3240.000000 0.000000 0.000000 10.000000
4262.460000 2467.840000 3240.000000 0.000000 0.000000 10.000000
4267.460000 2435.840000 3240.000000 0.000000 0.000000 10.000000
4263.460000 2387.840000 3240.000000 0.000000 0.000000 10.000000
4223.460000 2371.840000 3240.000000 0.000000 0.000000 10.000000
4265.460000 2307.840000 3240.000000 0.000000 0.000000 10.000000
4261.460000 2291.840000 3240.000000 0.000000 0.000000 10.000000
4219.460000 2243.840000 3240.000000 0.000000 0.000000 10.000000
4236.460000 2110.840000 3224.000000 0.000000 0.000000 10.000000
4260.460000 2046.840000 3224.000000 0.000000 0.000000 10.000000
4248.460000 2014.840000 3224.000000 0.000000 0.000000 10.000000
4267.460000 1982.840000 3224.000000 0.000000 0.000000 10.000000
4260.460000 1966.840000 3224.000000 0.000000 0.000000 10.000000
4263.460000 1934.840000 3224.000000 0.000000 0.000000 10.000000
4217.460000 1902.840000 3224.000000 0.000000 0.000000 10.000000
4223.460000 1822.840000 3176.000000 0.000000 0.000000 10.000000
4208.460000 1783.840000 3160.000000 0.000000 -9.769000 2.136969
4260.460000 1943.840000 2904.000000 0.000000 0.000000 -10.000000
4267.460000 1959.840000 2904.000000 0.000000 0.000000 -10.000000
4258.460000 1975.840000 2904.000000 0.000000 0.000000 -10.000000
4218.460000 2010.840000 2792.000000 0.000000 -9.701425 -2.425356
4243.460000 2200.840000 2776.000000 0.000000 -6.152709 -7.883158
4212.460000 2225.840000 2744.000000 0.000000 -7.840458 -6.207029
4262.460000 1678.840000 2728.000000 0.000000 9.363292 3.511234
4258.460000 1681.840000 2744.000000 0.000000 7.761140 6.305926
4258.460000 1665.840000 2744.000000 0.000000 9.018160 4.321202
4266.460000 1658.840000 2792.000000 0.000000 7.295372 -6.839411
4261.460000 1725.840000 2840.000000 0.000000 9.701425 2.425356
4267.460000 1729.840000 2872.000000 0.000000 9.230769 -3.846154
4265.460000 1671.840000 2904.000000 0.000000 0.000000 10.000000
4260.460000 1600.840000 2952.000000 0.000000 -9.799873 1.990599
4262.460000 1669.840000 3000.000000 0.000000 0.000000 -10.000000
4258.460000 1685.840000 3000.000000 0.000000 0.000000 -10.000000
4262.460000 1670.840000 3016.000000 0.000000 0.000000 10.000000
4266.460000 1654.840000 3016.000000 0.000000 6.441357 7.649112
4264.460000 1583.840000 3064.000000 0.000000 0.000000 10.000000
4220.460000 1519.840000 3064.000000 0.000000 -9.980526 -0.623783
4229.460000 1557.840000 3000.000000 0.000000 -9.880120 -1.543769
4254.460000 1528.840000 2936.000000 0.000000 0.000000 10.000000
4247.460000 1480.840000 2936.000000 0.000000 0.000000 10.000000
4234.460000 1416.840000 2920.000000 0.000000 0.000000 10.000000
4264.460000 1383.840000 2904.000000 0.000000 -7.295372 -6.839411
4233.460000 1415.840000 2904.000000 0.000000 0.000000 -10.000000
4215.460000 1501.840000 2840.000000 0.000000 -6.152709 -7.883158
4210.460000 1514.840000 2792.000000 0.000000 -9.980526 -0.623783
4264.460000 1571.840000 2680.000000 0.000000 -4.257970 9.048187
4261.460000 1617.840000 2664.000000 0.000000 0.000000 -10.000000
4267.460000 1446.840000 2392.000000 0.000000 9.828722 -1.842885
4259.460000 1415.840000 2424.000000 0.000000 0.000000 10.000000
4254.460000 1383.840000 2424.000000 0.000000 0.000000 10.000000
4264.460000 1176.840000 2456.000000 0.000000 9.298066 3.680485
4259.460000 1155.840000 2520.000000 0.000000 3.969112 9.178570
4218.460000 1070.840000 2536.000000 0.000000 9.090648 4.166547
4266.460000 1064.840000 2584.000000 0.000000 9.995121 0.312348
4233.460000 984.840000 2584.000000 0.000000 0.000000 10.000000
4218.460000 952.840000 2584.000000 0.000000 -9.789804 2.039543
4219.460000 947.840000 2488.000000 0.000000 0.000000 -10.000000
4212.460000 979.840000 2472.000000 0.000000 -8.360479 -5.486564
4231.460000 1016.840000 2456.000000 0.000000 0.000000 -10.000000
4209.460000 1270.840000 2392.000000 0.000000 -9.922779 -1.240347
4263.460000 1327.840000 2360.000000 0.000000 4.061385 -9.138115
4239.460000 1343.840000 2360.000000 0.000000 4.061385 -9.138115
4215.460000 1386.840000 2312.000000 0.000000 -4.586429 -8.886207
4252.460000 1418.840000 2312.000000 0.000000 -7.295372 -6.839411
4209.460000 1233.840000 2200.000000 0.000000 0.000000 -10.000000
4259.460000 1326.840000 2536.000000 0.000000 0.000000 -10.000000
4262.460000 1400.840000 2552.000000 0.000000 3.559953 -9.344877
4260.460000 1436.840000 2600.000000 0.000000 6.643638 -7.474093
4263.460000 1390.840000 2728.000000 0.000000 0.000000 10.000000
4236.460000 1358.840000 2728.000000 0.000000 0.000000 10.000000
4230.460000 1342.840000 2728.000000 0.000000 0.000000 10.000000
4219.460000 1272.840000 2584.000000 0.000000 -7.071068 7.071068
4220.460000 1262.840000 2536.000000 0.000000 0.000000 -10.000000
4253.460000 1310.840000 2536.000000 0.000000 0.000000 -10.000000
4270.460000 2195.840000 2696.000000 0.000000 -4.472136 8.944272
4228.460000 2147.840000 2696.000000 0.000000 0.000000 10.000000
4269.460000 2147.840000 2680.000000 0.000000 0.000000 -10.000000
4273.460000 2179.840000 2680.000000 0.000000 0.000000 -10.000000
4227.460000 2270.840000 2728.000000 0.000000 5.970108 -8.022332
4271.960000 2494.840000 2728.000000 0.000000 0.000000 -10.000000
4270.460000 2497.840000 2744.000000 0.000000 8.598547 -5.105388
4270.460000 2529.840000 2760.000000 0.000000 0.000000 -10.000000
4276.460000 2545.840000 2760.000000 0.000000 4.472136 -8.944272
4247.460000 2472.840000 2776.000000 0.000000 0.000000 10.000000
4240.460000 2456.840000 2776.000000 0.000000 8.715755 4.902612
4273.460000 2397.840000 2840.000000 0.000000 0.000000 10.000000
4271.460000 2327.840000 2904.000000 0.000000 3.222638 9.466499
4274.460000 2295.840000 2904.000000 0.000000 5.627910 8.265992
4276.460000 2224.840000 2952.000000 0.000000 9.586469 2.845983
4274.460000 2229.840000 3000.000000 0.000000 9.161573 -4.008188
4270.460000 2261.840000 3000.000000 0.000000 0.000000 -10.000000
4276.460000 2277.840000 3000.000000 0.000000 0.000000 -10.000000
4268.460000 2214.840000 3016.000000 0.000000 9.018160 4.321202
4277.460000 2207.840000 3064.000000 0.000000 9.018160 4.321202
4272.460000 2191.840000 3064.000000 0.000000 0.000000 10.000000
4270.460000 2143.840000 3096.000000 0.000000 9.995121 -0.312348
4225.460000 2257.840000 3128.000000 0.000000 0.000000 -10.000000
4230.460000 2319.840000 3064.000000 0.000000 -3.559953 -9.344877
4218.460000 2335.840000 3064.000000 0.000000 -6.343166 -7.730734
4231.460000 2416.840000 2952.000000 0.000000 -4.472136 -8.944272
4245.460000 2448.840000 2952.000000 0.000000 0.000000 -10.000000
4276.460000 2512.840000 2952.000000 0.000000 -4.472136 -8.944272
4276.460000 2560.840000 2952.000000 0.000000 0.000000 -10.000000
4277.460000 2608.840000 2952.000000 0.000000 0.000000 -10.000000
4272.460000 2624.840000 2952.000000 0.000000 0.000000 -10.000000
4270.460000 2608.840000 3048.000000 0.000000 0.000000 10.000000
4271.460000 2607.840000 3096.000000 0.000000 5.710645 -8.209052
4274.460000 2622.840000 3176.000000 0.000000 8.559155 -5.171156
4243.460000 2683.840000 3192.000000 0.000000 0.000000 -10.000000
4275.460000 2731.840000 3192.000000 0.000000 0.000000 -10.000000
4270.460000 2835.840000 3240.000000 0.000000 0.000000 10.000000
4244.460000 2739.840000 3240.000000 0.000000 0.000000 10.000000
4273.460000 2691.840000 3240.000000 0.000000 0.000000 10.000000
4268.460000 2483.840000 3240.000000 0.000000 0.000000 10.000000
4270.460000 2403.840000 3240.000000 0.000000 0.000000 10.000000
4271.460000 2371.840000 3240.000000 0.000000 0.000000 10.000000
4268.460000 2323.840000 3240.000000 0.000000 0.000000 10.000000
4247.460000 2227.840000 3240.000000 0.000000 0.000000 10.000000
4248.460000 2142.840000 3224.000000 0.000000 0.000000 10.000000
4268.460000 2110.840000 3224.000000 0.000000 0.000000 10.000000
4256.460000 2078.840000 3224.000000 0.000000 0.000000 10.000000
4241.460000 1998.840000 3224.000000 0.000000 0.000000 10.000000
4227.460000 1855.840000 3064.000000 0.000000 0.000000 -10.000000
4265.460000 1871.840000 3064.000000 0.000000 -4.362735 -8.998141
4222.460000 1904.840000 2968.000000 0.000000 -9.995121 0.312348
4221.460000 1896.840000 2920.000000 0.000000 -8.944272 4.472136
4265.460000 1991.840000 2904.000000 0.000000 0.000000 -10.000000
4218.460000 2029.840000 2840.000000 0.000000 -9.090648 -4.166547
4227.460000 2026.840000 2792.000000 0.000000 -3.285206 -9.444968
4277.460000 2168.840000 2776.000000 0.000000 0.000000 -10.000000
4268.460000 2184.840000 2776.000000 0.000000 0.000000 -10.000000
4275.460000 2200.840000 2776.000000 0.000000 0.000000 -10.000000
4222.460000 2241.840000 2744.000000 0.000000 -7.840458 -6.207029
4277.460000 2211.840000 2696.000000 0.000000 0.000000 10.000000
4271.460000 1281.840000 2216.000000 0.000000 0.000000 -10.000000
4274.460000 1288.840000 2232.000000 0.000000 8.715755 4.902612
4275.460000 1515.840000 2328.000000 0.000000 0.000000 -10.000000
4273.460000 1515.840000 2344.000000 0.000000 0.000000 10.000000
4269.460000 1447.840000 2424.000000 0.000000 0.000000 10.000000
4271.960000 1399.840000 2424.000000 0.000000 0.000000 10.000000
4221.460000 1303.840000 2408.000000 0.000000 -4.472136 8.944272
4272.460000 1080.840000 2584.000000 0.000000 9.995121 0.312348
4240.460000 1000.840000 2584.000000 0.000000 0.000000 10.000000
4228.460000 979.840000 2472.000000 0.000000 -8.360479 -5.486564
4231.460000 1048.840000 2456.000000 0.000000 0.000000 -10.000000
4275.460000 1239.840000 2424.000000 0.000000 0.000000 -10.000000
4263.460000 1359.840000 2360.000000 0.000000 4.061385 -9.138115
4226.460000 1402.840000 2312.000000 0.000000 0.000000 -10.000000
4270.460000 1390.840000 2536.000000 0.000000 0.000000 -10.000000
4276.460000 1436.840000 2600.000000 0.000000 6.643638 -7.474093
4271.460000 1474.840000 2616.000000 0.000000 5.168691 -8.560644
4271.460000 1473.840000 2648.000000 0.000000 0.000000 10.000000
4268.460000 1377.840000 2664.000000 0.000000 9.600000 2.800000
4272.460000 1411.840000 2696.000000 0.000000 6.853647 -7.282000
4268.460000 1358.840000 2728.000000 0.000000 -4.472136 8.944272
4250.460000 1329.840000 2648.000000 0.000000 0.000000 -10.000000
4223.460000 1346.840000 2616.000000 0.000000 -9.747323 -2.233762
4261.460000 1320.840000 2584.000000 0.000000 -4.472136 8.944272
4223.460000 1272.840000 2568.000000 0.000000 -8.944272 4.472136
4269.460000 1310.840000 2536.000000 0.000000 0.000000 -10.000000
4264.460000 1651.840000 2680.000000 0.000000 4.257970 -9.048187
4274.460000 1681.840000 2744.000000 0.000000 6.152709 7.883158
4249.460000 1686.840000 2808.000000 0.000000 3.417431 -9.397934
4274.460000 1719.840000 2904.000000 0.000000 0.000000 10.000000
4225.460000 1687.840000 2904.000000 0.000000 0.000000 10.000000
4224.460000 1621.840000 3000.000000 0.000000 0.000000 -10.000000
4271.460000 1701.840000 3000.000000 0.000000 6.853647 -7.282000
4275.460000 1686.840000 3016.000000 0.000000 6.441357 7.649112
4277.460000 1663.840000 3064.000000 0.000000 0.000000 10.000000
4272.460000 1647.840000 3064.000000 0.000000 0.000000 10.000000
4227.460000 1544.840000 2936.000000 0.000000 -3.713907 9.284767
4242.460000 1432.840000 2920.000000 0.000000 0.000000 10.000000
4241.460000 1399.840000 2904.000000 0.000000 0.000000 -10.000000
4222.460000 1472.840000 2856.000000 0.000000 -9.363292 -3.511234
4231.460000 1501.840000 2840.000000 0.000000 -3.350097 -9.422147
4226.460000 1514.840000 2792.000000 0.000000 -8.300496 -5.576896
4222.460000 1598.840000 2728.000000 0.000000 -9.995121 -0.312348
4241.460000 1587.840000 2680.000000 0.000000 -8.715755 4.902612
4286.460000 2529.840000 2744.000000 0.000000 6.747692 -7.380288
4255.460000 2488.840000 2776.000000 0.000000 0.000000 10.000000
4278.460000 2343.840000 2904.000000 0.000000 0.000000 10.000000
4282.460000 2240.840000 2952.000000 0.000000 9.586469 2.845983
4280.460000 2245.840000 3000.000000 0.000000 9.161573 -4.008188
4281.460000 2293.840000 3000.000000 0.000000 6.853647 -7.282000
4280.460000 2246.840000 3016.000000 0.000000 0.000000 10.000000
4286.460000 2143.840000 3096.000000 0.000000 9.995121 -0.312348
4241.460000 2225.840000 3128.000000 0.000000 0.000000 -10.000000
4241.460000 2257.840000 3128.000000 0.000000 0.000000 -10.000000
4256.460000 2289.840000 3128.000000 0.000000 0.000000 -10.000000
4234.460000 2335.840000 3064.000000 0.000000 0.000000 -10.000000
4239.460000 2351.840000 3064.000000 0.000000 -3.559953 -9.344877
4230.460000 2367.840000 3064.000000 0.000000 -6.343166 -7.730734
4238.460000 2432.840000 2952.000000 0.000000 -7.071068 -7.071068
4287.460000 2576.840000 2952.000000 0.000000 0.000000 -10.000000
4287.460000 2662.840000 3032.000000 0.000000 3.880570 9.216354
4278.460000 2591.840000 3096.000000 0.000000 9.544800 -2.982750
4287.460000 2607.840000 3096.000000 0.000000 5.710645 -8.209052
4282.460000 2667.840000 3192.000000 0.000000 3.350097 -9.422147
4236.460000 2699.840000 3192.000000 0.000000 0.000000 -10.000000
4278.460000 2851.840000 3240.000000 0.000000 0.000000 10.000000
4286.460000 2835.840000 3240.000000 0.000000 0.000000 10.000000
4278.460000 2819.840000 3240.000000 0.000000 0.000000 10.000000
4251.460000 2755.840000 3240.000000 0.000000 0.000000 10.000000
4274.460000 2579.840000 3240.000000 0.000000 0.000000 10.000000
4269.460000 2531.840000 3240.000000 0.000000 0.000000 10.000000
4241.460000 2499.840000 3240.000000 0.000000 0.000000 10.000000
4278.460000 2467.840000 3240.000000 0.000000 0.000000 10.000000
4274.460000 2275.840000 3240.000000 0.000000 0.000000 10.000000
4235.460000 2243.840000 3240.000000 0.000000 0.000000 10.000000
4270.460000 2158.840000 3224.000000 0.000000 0.000000 10.000000
4254.460000 2030.840000 3224.000000 0.000000 0.000000 10.000000
4252.460000 1839.840000 3064.000000 0.000000 -8.479983 -5.299989
4275.460000 1855.840000 3064.000000 0.000000 -8.479983 -5.299989
4281.460000 1871.840000 3064.000000 0.000000 -5.240974 -8.516583
4228.460000 1909.840000 3000.000000 0.000000 -9.965458 -0.830455
4237.460000 1896.840000 2920.000000 0.000000 -8.944272 4.472136
4253.460000 1927.840000 2904.000000 0.000000 0.000000 -10.000000
4240.460000 2007.840000 2904.000000 0.000000 -8.869141 -4.619344
4228.460000 2054.840000 2808.000000 0.000000 -9.652264 -2.614155
4237.460000 2042.840000 2792.000000 0.000000 -9.980526 -0.623783
4232.460000 2257.840000 2744.000000 0.000000 -7.840458 -6.207029
4243.460000 2270.840000 2728.000000 0.000000 -8.479983 5.299989
4242.460000 2302.840000 2728.000000 0.000000 0.000000 -10.000000
4279.460000 2350.840000 2728.000000 0.000000 8.715755 -4.902612
4281.460000 2430.840000 2728.000000 0.000000 0.000000 -10.000000
4280.960000 2510.840000 2728.000000 0.000000 0.000000 -10.000000
4280.460000 1651.840000 2680.000000 0.000000 4.257970 -9.048187
4242.460000 1667.840000 2680.000000 0.000000 4.257970 -9.048187
4267.460000 1683.840000 2680.000000 0.000000 4.257970 -9.048187
4280.460000 1697.840000 2744.000000 0.000000 9.018160 4.321202
4282.460000 1658.840000 2792.000000 0.000000 7.295372 -6.839411
4281.460000 1686.840000 2808.000000 0.000000 3.417431 -9.397934
4286.460000 1757.840000 2824.000000 0.000000 3.795564 -9.251686
4284.460000 1741.840000 2840.000000 0.000000 9.701425 2.425356
4281.460000 1703.840000 2904.000000 0.000000 0.000000 10.000000
4241.460000 1687.840000 2904.000000 0.000000 5.627910 8.265992
4256.460000 1655.840000 2904.000000 0.000000 3.222638 9.466499
4281.460000 1616.840000 2952.000000 0.000000 -9.799873 1.990599
4240.460000 1621.840000 3000.000000 0.000000 9.161573 -4.008188
4287.460000 1701.840000 3000.000000 0.000000 0.000000 -10.000000
4283.460000 1631.840000 3064.000000 0.000000 0.000000 10.000000
4278.460000 1615.840000 3064.000000 0.000000 0.000000 10.000000
4233.960000 1568.840000 2952.000000 0.000000 -9.799873 1.990599
4259.460000 1544.840000 2936.000000 0.000000 0.000000 10.000000
4281.460000 1512.840000 2936.000000 0.000000 0.000000 10.000000
4282.460000 1448.840000 2920.000000 0.000000 0.000000 10.000000
4258.460000 1463.840000 2904.000000 0.000000 0.000000 -10.000000
4234.460000 1530.840000 2792.000000 0.000000 -8.300496 -5.576896
4252.460000 1576.840000 2776.000000 0.000000 -6.575342 -7.534247
4237.460000 1601.840000 2744.000000 0.000000 -9.090648 -4.166547
4236.460000 1585.840000 2664.000000 0.000000 0.000000 -10.000000
4279.960000 1431.840000 2424.000000 0.000000 0.000000 10.000000
4279.960000 1399.840000 2424.000000 0.000000 0.000000 10.000000
4239.460000 1351.840000 2424.000000 0.000000 0.000000 10.000000
4244.460000 1319.840000 2408.000000 0.000000 0.000000 10.000000
4287.460000 1258.840000 2440.000000 0.000000 4.257970 9.048187
4286.460000 1187.840000 2472.000000 0.000000 9.298066 3.680485
4283.460000 1171.840000 2520.000000 0.000000 3.969112 9.178570
4280.460000 1134.840000 2536.000000 0.000000 0.000000 10.000000
4281.460000 1102.840000 2536.000000 0.000000 9.090648 4.166547
4232.460000 974.840000 2536.000000 0.000000 -9.729366 2.310724
4271.460000 1064.840000 2456.000000 0.000000 0.000000 -10.000000
4255.460000 1207.840000 2424.000000 0.000000 0.000000 -10.000000
4255.460000 1375.840000 2360.000000 0.000000 0.000000 -10.000000
4283.460000 1466.840000 2312.000000 0.000000 0.000000 -10.000000
4278.460000 1406.840000 2536.000000 0.000000 3.559953 -9.344877
4287.460000 1474.840000 2616.000000 0.000000 3.880570 -9.216354
4284.460000 1505.840000 2648.000000 0.000000 0.000000 10.000000
4287.460000 1473.840000 2648.000000 0.000000 -4.472136 8.944272
4285.460000 1406.840000 2728.000000 0.000000 0.000000 10.000000
4279.460000 1374.840000 2728.000000 0.000000 0.000000 10.000000
4236.460000 1262.840000 2536.000000 0.000000 0.000000 -10.000000
4285.460000 2147.840000 2680.000000 0.000000 -10.000000 0.000000
4282.460000 2243.840000 2680.000000 0.000000 0.000000 -10.000000
4237.460000 2163.840000 2696.000000 0.000000 0.000000 10.000000
4267.460000 2195.840000 2680.000000 0.000000 0.000000 -10.000000
4288.460000 2227.840000 2680.000000 0.000000 0.000000 -10.000000
4294.460000 2259.840000 2680.000000 0.000000 0.000000 -10.000000
4249.460000 2318.840000 2728.000000 0.000000 0.000000 -10.000000
4292.460000 2382.840000 2728.000000 0.000000 0.000000 -10.000000
4291.460000 2478.840000 2728.000000 0.000000 0.000000 -10.000000
4292.460000 2545.840000 2760.000000 0.000000 4.472136 -8.944272
4293.460000 2536.840000 2776.000000 0.000000 0.000000 10.000000
4294.460000 2343.840000 2904.000000 0.000000 0.000000 10.000000
4296.460000 2272.840000 2952.000000 0.000000 9.586469 2.845983
4292.460000 2277.840000 3000.000000 0.000000 9.161573 -4.008188
4297.460000 2293.840000 3000.000000 0.000000 9.161573 -4.008188
4292.460000 2278.840000 3016.000000 0.000000 6.441357 7.649112
4297.460000 2223.840000 3064.000000 0.000000 0.000000 10.000000
4293.460000 2207.840000 3064.000000 0.000000 0.000000 10.000000
4288.460000 2191.840000 3064.000000 0.000000 3.559953 9.344877
4295.460000 2159.840000 3096.000000 0.000000 9.054589 4.244339
4241.460000 2335.840000 3096.000000 0.000000 -9.230769 -3.846154
4246.460000 2367.840000 3064.000000 0.000000 0.000000 -10.000000
4239.460000 2383.840000 3064.000000 0.000000 0.000000 -10.000000
4248.460000 2399.840000 3064.000000 0.000000 0.000000 -10.000000
4242.460000 2437.840000 3000.000000 0.000000 -9.965458 -0.830455
4242.460000 2426.840000 2984.000000 0.000000 -9.880120 1.543769
4252.460000 2464.840000 2952.000000 0.000000 -4.472136 -8.944272
4266.460000 2496.840000 2952.000000 0.000000 0.000000 -10.000000
4282.460000 2544.840000 2952.000000 0.000000 0.000000 -10.000000
4294.460000 2656.840000 2952.000000 0.000000 0.000000 -10.000000
4295.460000 2678.840000 3032.000000 0.000000 9.880120 1.543769
4296.460000 2623.840000 3096.000000 0.000000 9.956342 -0.933407
4290.460000 2622.840000 3176.000000 0.000000 3.795564 -9.251686
4252.460000 2699.840000 3192.000000 0.000000 3.350097 -9.422147
4248.460000 2715.840000 3192.000000 0.000000 0.000000 -10.000000
4289.460000 2846.840000 3224.000000 0.000000 6.747692 -7.380288
4295.460000 2787.840000 3240.000000 0.000000 0.000000 10.000000
4292.460000 2739.840000 3240.000000 0.000000 0.000000 10.000000
4295.460000 2707.840000 3240.000000 0.000000 0.000000 10.000000
4266.460000 2675.840000 3240.000000 0.000000 0.000000 10.000000
4246.460000 2627.840000 3240.000000 0.000000 0.000000 10.000000
4292.460000 2547.840000 3240.000000 0.000000 3.487337 9.372219
4263.460000 2515.840000 3240.000000 0.000000 0.000000 10.000000
4288.460000 2451.840000 3240.000000 0.000000 0.000000 10.000000
4244.460000 2174.840000 3224.000000 0.000000 -3.969112 9.178570
4266.460000 2062.840000 3224.000000 0.000000 0.000000 10.000000
4292.460000 2046.840000 3224.000000 0.000000 0.000000 10.000000
4292.460000 1966.840000 3224.000000 0.000000 -6.441357 7.649112
4271.460000 1887.840000 3064.000000 0.000000 0.000000 -10.000000
4238.460000 1910.840000 3032.000000 0.000000 -9.956342 0.933407
4288.460000 2007.840000 2904.000000 0.000000 0.000000 -10.000000
4247.460000 2058.840000 2792.000000 0.000000 -9.980526 -0.623783
4288.460000 2232.840000 2776.000000 0.000000 0.000000 -10.000000
4279.460000 2248.840000 2776.000000 0.000000 0.000000 -10.000000
4240.460000 2273.840000 2744.000000 0.000000 -9.090648 -4.166547
4290.460000 1681.840000 2744.000000 0.000000 9.018160 4.321202
4291.460000 1674.840000 2792.000000 0.000000 9.501575 -3.117704
4289.460000 1702.840000 2808.000000 0.000000 3.417431 -9.397934
4290.460000 1734.840000 2808.000000 0.000000 3.417431 -9.397934
4296.460000 1761.840000 2888.000000 0.000000 9.544800 2.982750
4297.460000 1703.840000 2904.000000 0.000000 3.222638 9.466499
4297.460000 1653.840000 3000.000000 0.000000 9.161573 -4.008188
4290.460000 1685.840000 3000.000000 0.000000 0.000000 -10.000000
4288.460000 1702.840000 3016.000000 0.000000 7.295372 6.839411
4288.460000 1647.840000 3064.000000 0.000000 0.000000 10.000000
4294.460000 1615.840000 3064.000000 0.000000 0.000000 10.000000
4252.960000 1573.840000 3000.000000 0.000000 -7.295372 -6.839411
4264.460000 1560.840000 2936.000000 0.000000 0.000000 10.000000
4297.460000 1512.840000 2936.000000 0.000000 0.000000 10.000000
4282.460000 1416.840000 2920.000000 0.000000 0.000000 10.000000
4249.460000 1384.840000 2920.000000 0.000000 0.000000 10.000000
4249.460000 1415.840000 2904.000000 0.000000 0.000000 -10.000000
4250.460000 1447.840000 2904.000000 0.000000 0.000000 -10.000000
4258.460000 1546.840000 2792.000000 0.000000 -8.300496 -5.576896
4284.460000 1585.840000 2664.000000 0.000000 0.000000 -10.000000
4285.460000 1499.840000 2328.000000 0.000000 4.362735 -8.998141
4293.460000 1463.840000 2424.000000 0.000000 0.000000 10.000000
4288.460000 1150.840000 2536.000000 0.000000 9.090648 4.166547
4296.460000 1134.840000 2536.000000 0.000000 9.090648 4.166547
4289.460000 1118.840000 2536.000000 0.000000 9.090648 4.166547
4294.460000 1096.840000 2584.000000 0.000000 9.995121 0.312348
4247.460000 1016.840000 2584.000000 0.000000 -4.061385 9.138115
4249.460000 984.840000 2584.000000 0.000000 -8.792920 4.762831
4247.460000 1048.840000 2456.000000 0.000000 0.000000 -10.000000
4293.460000 1191.840000 2424.000000 0.000000 -3.350097 -9.422147
4297.460000 1223.840000 2424.000000 0.000000 0.000000 -10.000000
4295.460000 1271.840000 2424.000000 0.000000 0.000000 -10.000000
4263.460000 1294.840000 2536.000000 0.000000 -5.881717 -8.087361
4297.460000 1342.840000 2536.000000 0.000000 0.000000 -10.000000
4294.460000 1374.840000 2536.000000 0.000000 0.000000 -10.000000
4294.460000 1406.840000 2536.000000 0.000000 0.000000 -10.000000
4288.460000 1411.840000 2696.000000 0.000000 6.853647 -7.282000
4294.460000 1427.840000 2696.000000 0.000000 6.853647 -7.282000
4292.460000 1422.840000 2728.000000 0.000000 0.000000 10.000000
4246.460000 1342.840000 2728.000000 0.000000 0.000000 10.000000
4252.460000 1304.840000 2584.000000 0.000000 -4.472136 8.944272
4307.460000 1515.840000 2328.000000 0.000000 4.362735 -8.998141
4299.460000 1531.840000 2328.000000 0.000000 4.362735 -8.998141
4306.460000 1479.840000 2408.000000 0.000000 9.995121 -0.312348
4305.460000 1224.840000 2456.000000 0.000000 9.298066 3.680485
4300.460000 1203.840000 2520.000000 0.000000 4.257970 9.048187
4302.460000 1112.840000 2584.000000 0.000000 9.995121 0.312348
4285.460000 1032.840000 2584.000000 0.000000 -9.054589 4.244339
4263.460000 1016.840000 2584.000000 0.000000 -8.792920 4.762831
4256.460000 1000.840000 2584.000000 0.000000 0.000000 10.000000
4252.460000 1027.840000 2472.000000 0.000000 -8.360479 -5.486564
4255.460000 1096.840000 2456.000000 0.000000 -4.257970 -9.048187
4258.460000 1159.840000 2424.000000 0.000000 -3.350097 -9.422147
4301.460000 1255.840000 2424.000000 0.000000 0.000000 -10.000000
4263.460000 1295.840000 2360.000000 0.000000 -6.343166 7.730734
4263.460000 1291.840000 2344.000000 0.000000 -4.961389 -8.682431
4279.460000 1391.840000 2360.000000 0.000000 -5.881717 -8.087361
4262.460000 1434.840000 2312.000000 0.000000 0.000000 -10.000000
4305.460000 1448.840000 2568.000000 0.000000 9.230769 -3.846154
4300.460000 1505.840000 2648.000000 0.000000 0.000000 10.000000
4301.460000 1406.840000 2728.000000 0.000000 0.000000 10.000000
4254.460000 1313.840000 2664.000000 0.000000 -9.989032 -0.468236
4261.460000 1345.840000 2648.000000 0.000000 0.000000 -10.000000
4270.460000 1336.840000 2584.000000 0.000000 -4.472136 8.944272
4271.460000 1358.840000 2536.000000 0.000000 0.000000 -10.000000
4303.460000 1422.840000 2536.000000 0.000000 0.000000 -10.000000
4261.460000 1699.840000 2680.000000 0.000000 0.000000 -10.000000
4307.460000 1674.840000 2792.000000 0.000000 7.295372 -6.839411
4298.460000 1718.840000 2808.000000 0.000000 3.417431 -9.397934
4298.460000 1735.840000 2904.000000 0.000000 0.000000 10.000000
4289.460000 1687.840000 2904.000000 0.000000 5.627910 8.265992
4301.460000 1632.840000 2952.000000 0.000000 -9.799873 1.990599
4300.460000 1637.840000 3000.000000 0.000000 9.161573 -4.008188
4306.460000 1685.840000 3000.000000 0.000000 0.000000 -10.000000
4300.460000 1717.840000 3000.000000 0.000000 0.000000 -10.000000
4307.460000 1733.840000 3000.000000 0.000000 6.853647 -7.282000
4302.460000 1695.840000 3064.000000 0.000000 0.000000 10.000000
4298.460000 1679.840000 3064.000000 0.000000 0.000000 10.000000
4255.460000 1599.840000 3064.000000 0.000000 0.000000 10.000000
4253.460000 1574.840000 3016.000000 0.000000 -9.946184 -1.036061
4262.460000 1589.840000 3000.000000 0.000000 -9.264666 -3.763770
4253.460000 1576.840000 2936.000000 0.000000 -3.713907 9.284767
4306.460000 1432.840000 2920.000000 0.000000 0.000000 10.000000
4298.460000 1416.840000 2920.000000 0.000000 0.000000 10.000000
4257.460000 1400.840000 2920.000000 0.000000 0.000000 10.000000
4299.460000 2195.840000 2680.000000 0.000000 -10.000000 0.000000
4262.460000 2211.840000 2680.000000 0.000000 0.000000 -10.000000
4298.460000 2243.840000 2680.000000 0.000000 0.000000 -10.000000
4258.460000 2302.840000 2728.000000 0.000000 -8.479983 5.299989
4288.460000 2334.840000 2728.000000 0.000000 -9.672310 2.538981
4301.460000 2366.840000 2728.000000 0.000000 -8.479983 5.299989
4256.460000 2446.840000 2728.000000 0.000000 0.000000 -10.000000
4307.460000 2478.840000 2728.000000 0.000000 0.000000 -10.000000
4302.460000 2529.840000 2744.000000 0.000000 4.157598 -9.094745
4301.460000 2552.840000 2776.000000 0.000000 0.000000 10.000000
4294.460000 2504.840000 2776.000000 0.000000 8.715755 4.902612
4303.460000 2488.840000 2776.000000 0.000000 0.000000 10.000000
4279.460000 2472.840000 2776.000000 0.000000 8.715755 4.902612
4307.460000 2375.840000 2904.000000 0.000000 0.000000 10.000000
4303.460000 2288.840000 2952.000000 0.000000 9.586469 2.845983
4305.460000 2309.840000 3000.000000 0.000000 9.161573 -4.008188
4307.460000 2255.840000 3064.000000 0.000000 4.362735 8.998141
4302.460000 2239.840000 3064.000000 0.000000 0.000000 10.000000
4257.460000 2167.840000 3144.000000 0.000000 8.944272 -4.472136
4249.460000 2183.840000 3144.000000 0.000000 -3.559953 -9.344877
4257.460000 2257.840000 3128.000000 0.000000 0.000000 -10.000000
4255.460000 2321.840000 3128.000000 0.000000 -5.710645 -8.209052
4252.460000 2351.840000 3096.000000 0.000000 -9.230769 -3.846154
4249.460000 2341.840000 3080.000000 0.000000 -10.000000 0.000000
4255.460000 2351.840000 3064.000000 0.000000 -5.240974 -8.516583
4262.460000 2367.840000 3064.000000 0.000000 -3.559953 -9.344877
4271.460000 2383.840000 3064.000000 0.000000 -3.559953 -9.344877
4288.460000 2415.840000 3064.000000 0.000000 -3.559953 -9.344877
4297.460000 2431.840000 3064.000000 0.000000 0.000000 -10.000000
4250.460000 2453.840000 3000.000000 0.000000 -8.637789 5.038710
4259.460000 2480.840000 2952.000000 0.000000 -4.472136 -8.944272
4306.460000 2656.840000 3048.000000 0.000000 9.426272 3.338471
4299.460000 2640.840000 3048.000000 0.000000 9.426272 3.338471
4305.460000 2639.840000 3096.000000 0.000000 9.956342 -0.933407
4305.460000 2654.840000 3176.000000 0.000000 8.559155 -5.171156
4307.460000 2731.840000 3192.000000 0.000000 0.000000 -10.000000
4303.460000 2747.840000 3192.000000 0.000000 3.350097 -9.422147
4306.460000 2795.840000 3192.000000 0.000000 0.000000 -10.000000
4306.460000 2814.840000 3224.000000 0.000000 6.747692 -7.380288
4302.460000 2867.840000 3240.000000 0.000000 0.000000 10.000000
4286.460000 2803.840000 3240.000000 0.000000 0.000000 10.000000
4276.460000 2659.840000 3240.000000 0.000000 0.000000 10.000000
4262.460000 2627.840000 3240.000000 0.000000 0.000000 10.000000
4271.460000 2611.840000 3240.000000 0.000000 0.000000 10.000000
4305.460000 2499.840000 3240.000000 0.000000 0.000000 10.000000
4261.460000 2419.840000 3240.000000 0.000000 0.000000 10.000000
4257.460000 2339.840000 3240.000000 0.000000 0.000000 10.000000
4300.460000 2323.840000 3240.000000 0.000000 0.000000 10.000000
4254.460000 2259.840000 3240.000000 0.000000 0.000000 10.000000
4282.460000 2190.840000 3224.000000 0.000000 0.000000 10.000000
4292.460000 2174.840000 3224.000000 0.000000 0.000000 10.000000
4302.460000 2158.840000 3224.000000 0.000000 0.000000 10.000000
4258.460000 2126.840000 3224.000000 0.000000 0.000000 10.000000
4294.460000 2094.840000 3224.000000 0.000000 0.000000 10.000000
4304.460000 2078.840000 3224.000000 0.000000 0.000000 10.000000
4305.460000 1998.840000 3224.000000 0.000000 0.000000 10.000000
4257.460000 1870.840000 3176.000000 0.000000 -5.795238 8.149553
4262.460000 2023.840000 2904.000000 0.000000 0.000000 -10.000000
4256.460000 2074.840000 2792.000000 0.000000 -9.161573 4.008188
4300.460000 2184.840000 2776.000000 0.000000 -3.285206 -9.444968
4302.460000 2264.840000 2776.000000 0.000000 0.000000 -10.000000
4293.460000 2280.840000 2776.000000 0.000000 0.000000 -10.000000
4310.460000 2211.840000 2680.000000 0.000000 -10.000000 0.000000
4314.460000 2243.840000 2680.000000 0.000000 0.000000 -10.000000
4316.460000 2291.840000 2680.000000 0.000000 0.000000 -10.000000
4265.460000 2318.840000 2728.000000 0.000000 8.715755 -4.902612
4308.460000 2382.840000 2728.000000 0.000000 5.970108 -8.022332
4283.460000 2398.840000 2728.000000 0.000000 0.000000 -10.000000
4288.460000 2446.840000 2728.000000 0.000000 0.000000 -10.000000
4314.460000 2462.840000 2728.000000 0.000000 0.000000 -10.000000
4308.460000 2545.840000 2744.000000 0.000000 0.000000 -10.000000
4314.460000 2561.840000 2744.000000 0.000000 4.157598 -9.094745
4317.460000 2552.840000 2776.000000 0.000000 0.000000 10.000000
4286.460000 2520.840000 2776.000000 0.000000 0.000000 10.000000
4313.460000 2445.840000 2840.000000 0.000000 8.637789 5.038710
4316.460000 2359.840000 2904.000000 0.000000 5.627910 8.265992
4310.460000 2343.840000 2904.000000 0.000000 3.222638 9.466499
4313.460000 2293.840000 3000.000000 0.000000 9.161573 -4.008188
4313.460000 2325.840000 3000.000000 0.000000 9.161573 -4.008188
4313.460000 2223.840000 3064.000000 0.000000 0.000000 10.000000
4265.460000 2215.840000 3144.000000 0.000000 -3.559953 -9.344877
4271.460000 2321.840000 3128.000000 0.000000 0.000000 -10.000000
4276.460000 2337.840000 3128.000000 0.000000 0.000000 -10.000000
4280.460000 2399.840000 3064.000000 0.000000 -5.240974 -8.516583
4287.460000 2528.840000 2952.000000 0.000000 -4.472136 -8.944272
4314.460000 2592.840000 2952.000000 0.000000 0.000000 -10.000000
4317.460000 2709.840000 3000.000000 0.000000 9.965458 0.830455
4315.460000 2655.840000 3096.000000 0.000000 9.456866 -3.250798
4313.460000 2670.840000 3176.000000 0.000000 8.559155 -5.171156
4316.460000 2699.840000 3192.000000 0.000000 3.350097 -9.422147
4312.460000 2715.840000 3192.000000 0.000000 3.350097 -9.422147
4283.460000 2763.840000 3192.000000 0.000000 0.000000 -10.000000
4310.460000 2819.840000 3240.000000 0.000000 0.000000 10.000000
4273.460000 2771.840000 3240.000000 0.000000 0.000000 10.000000
4315.460000 2755.840000 3240.000000 0.000000 0.000000 10.000000
4270.460000 2723.840000 3240.000000 0.000000 0.000000 10.000000
4311.460000 2707.840000 3240.000000 0.000000 0.000000 10.000000
4312.460000 2355.840000 3240.000000 0.000000 0.000000 10.000000
4273.460000 2339.840000 3240.000000 0.000000 0.000000 10.000000
4308.460000 2174.840000 3224.000000 0.000000 0.000000 10.000000
4312.460000 2142.840000 3224.000000 0.000000 0.000000 10.000000
4316.460000 2110.840000 3224.000000 0.000000 0.000000 10.000000
4270.460000 2030.840000 3224.000000 0.000000 0.000000 10.000000
4264.460000 2014.840000 3224.000000 0.000000 0.000000 10.000000
4272.460000 1902.840000 3176.000000 0.000000 -5.795238 8.149553
4278.460000 1903.840000 3064.000000 0.000000 0.000000 -10.000000
4262.460000 1941.840000 3000.000000 0.000000 -9.965458 -0.830455
4285.460000 2039.840000 2904.000000 0.000000 0.000000 -10.000000
4264.460000 2093.840000 2840.000000 0.000000 -9.090648 -4.166547
4264.460000 2090.840000 2792.000000 0.000000 -9.980526 -0.623783
4266.460000 2216.840000 2776.000000 0.000000 0.000000 -10.000000
4270.460000 2305.840000 2744.000000 0.000000 -9.474923 -3.197786
4315.460000 2259.840000 2696.000000 0.000000 0.000000 10.000000
4310.460000 1547.840000 2344.000000 0.000000 4.472136 8.944272
4312.460000 1478.840000 2392.000000 0.000000 9.828722 -1.842885
4317.460000 1479.840000 2424.000000 0.000000 0.000000 10.000000
4275.460000 1351.840000 2408.000000 0.000000 -4.472136 8.944272
4313.460000 1274.840000 2440.000000 0.000000 4.257970 9.048187
4313.460000 1240.840000 2456.000000 0.000000 9.298066 3.680485
4314.460000 1221.840000 2504.000000 0.000000 9.969621 0.778877
4316.460000 1203.840000 2520.000000 0.000000 3.969112 9.178570
4308.460000 1187.840000 2520.000000 0.000000 3.969112 9.178570
4277.460000 1027.840000 2488.000000 0.000000 -4.472136 -8.944272
4276.460000 1043.840000 2472.000000 0.000000 -8.360479 -5.486564
4271.460000 1096.840000 2456.000000 0.000000 0.000000 -10.000000
4268.460000 1175.840000 2424.000000 0.000000 0.000000 -10.000000
4303.460000 1207.840000 2424.000000 0.000000 0.000000 -10.000000
4317.460000 1255.840000 2424.000000 0.000000 0.000000 -10.000000
4313.460000 1323.840000 2344.000000 0.000000 0.000000 -10.000000
4287.460000 1375.840000 2360.000000 0.000000 4.061385 -9.138115
4311.460000 1391.840000 2360.000000 0.000000 4.061385 -9.138115
4288.460000 1450.840000 2312.000000 0.000000 -4.586429 -8.886207
4311.460000 1468.840000 2600.000000 0.000000 8.792920 -4.762831
4302.460000 1489.840000 2648.000000 0.000000 0.000000 10.000000
4277.460000 1441.840000 2632.000000 0.000000 0.000000 10.000000
4312.460000 1393.840000 2664.000000 0.000000 9.363292 -3.511234
4308.460000 1422.840000 2728.000000 0.000000 0.000000 10.000000
4317.460000 1406.840000 2728.000000 0.000000 0.000000 10.000000
4266.460000 1329.840000 2664.000000 0.000000 -8.559155 5.171156
4266.460000 1329.840000 2648.000000 0.000000 0.000000 -10.000000
4289.460000 1361.840000 2648.000000 0.000000 0.000000 -10.000000
4263.460000 1352.840000 2584.000000 0.000000 -6.060432 7.954317
4309.460000 1699.840000 2680.000000 0.000000 4.257970 -9.048187
4271.460000 1715.840000 2680.000000 0.000000 0.000000 -10.000000
4312.460000 1713.840000 2744.000000 0.000000 9.980526 0.623783
4315.460000 1690.840000 2792.000000 0.000000 9.501575 -3.117704
4315.460000 1750.840000 2808.000000 0.000000 3.417431 -9.397934
4313.460000 1773.840000 2824.000000 0.000000 8.120154 -5.836360
4314.460000 1735.840000 2904.000000 0.000000 0.000000 10.000000
4309.460000 1656.840000 2936.000000 0.000000 3.713907 9.284767
4316.460000 1717.840000 3000.000000 0.000000 0.000000 -10.000000
4316.460000 1718.840000 3016.000000 0.000000 6.441357 7.649112
4314.460000 1679.840000 3064.000000 0.000000 0.000000 10.000000
4315.460000 1631.840000 3064.000000 0.000000 0.000000 10.000000
4271.460000 1599.840000 3064.000000 0.000000 0.000000 10.000000
4317.460000 1576.840000 2936.000000 0.000000 0.000000 10.000000
4286.460000 1528.840000 2936.000000 0.000000 0.000000 10.000000
4291.460000 1464.840000 2920.000000 0.000000 -4.472136 8.944272
4289.460000 1400.840000 2920.000000 0.000000 -6.853647 7.282000
4289.460000 1431.840000 2904.000000 0.000000 0.000000 -10.000000
4298.460000 1447.840000 2904.000000 0.000000 0.000000 -10.000000
4290.460000 1495.840000 2904.000000 0.000000 0.000000 -10.000000
4283.460000 1603.840000 2680.000000 0.000000 0.000000 10.000000
4264.460000 1601.840000 2664.000000 0.000000 0.000000 -10.000000
4321.460000 2179.840000 2680.000000 0.000000 -10.000000 0.000000
4320.460000 2227.840000 2680.000000 0.000000 0.000000 -10.000000
4321.460000 2275.840000 2680.000000 0.000000 0.000000 -10.000000
4327.460000 2307.840000 2680.000000 0.000000 0.000000 -10.000000
4322.460000 2414.840000 2728.000000 0.000000 0.000000 -10.000000
4318.460000 2526.840000 2728.000000 0.000000 0.000000 -10.000000
4327.460000 2542.840000 2728.000000 0.000000 0.000000 -10.000000
4321.460000 2577.840000 2744.000000 0.000000 4.472136 -8.944272
4318.460000 2584.840000 2776.000000 0.000000 0.000000 10.000000
4322.460000 2461.840000 2840.000000 0.000000 9.161573 4.008188
4323.460000 2375.840000 2904.000000 0.000000 0.000000 10.000000
4326.460000 2304.840000 2952.000000 0.000000 9.586469 2.845983
4321.460000 2341.840000 3000.000000 0.000000 0.000000 -10.000000
4322.460000 2310.840000 3016.000000 0.000000 0.000000 10.000000
4327.460000 2271.840000 3064.000000 0.000000 0.000000 10.000000
4323.460000 2255.840000 3064.000000 0.000000 0.000000 10.000000
4325.460000 2207.840000 3064.000000 0.000000 3.559953 9.344877
4320.460000 2191.840000 3064.000000 0.000000 7.071068 7.071068
4320.460000 2175.840000 3096.000000 0.000000 9.054589 4.244339
4325.460000 2150.840000 3112.000000 0.000000 7.295372 6.839411
4273.460000 2263.840000 3144.000000 0.000000 -3.559953 -9.344877
4282.460000 2353.840000 3128.000000 0.000000 0.000000 -10.000000
4274.460000 2447.840000 3064.000000 0.000000 -6.343166 -7.730734
4315.460000 2640.840000 2952.000000 0.000000 0.000000 -10.000000
4297.460000 2830.840000 3224.000000 0.000000 6.747692 -7.380288
4326.460000 2819.840000 3240.000000 0.000000 0.000000 10.000000
